-8.472224158176239,33.28896211986475,6.856952135319716
-8.949822044882826,33.52369719464814,34.01499129359257
-9.606923353653182,27.27367661267205,14.975384759991472
-8.413015261750061,33.62227595448278,38.12277615339871
-6.6116467762173405,37.10294459448787,48.22045392863596
-8.691378894227844,27.03369958086805,39.316890342746305
6.595573672854255,23.14868982406766,3.156336431409279
9.09068669336667,30.991858954230956,8.143062244741362
-7.833019066839529,24.86665297804201,45.655189294149
-9.12543842685075,31.943532169807458,32.0283518870965
4.66186452167066,38.354671856555875,38.63983262004416
-1.974664306702128,20.211869372291392,22.43732815559089
5.179932409994083,37.884241907390944,16.47048648301136
-5.097221023763787,37.849677065867446,28.617285855879643
9.10844889251089,26.89931100594332,1.8032009465421328
9.354591232341098,33.388414836994016,3.361881820685336
-9.476288456281901,29.894248887134363,14.76648275404231
0.2582988326954557,39.11967563029753,37.54383573117545
-5.566328638370532,22.40450505652386,5.201828473941289
-9.125421407154233,28.7982781620064,32.03655320987485
-9.431619176944759,27.69901627696759,47.104791207415566
-1.7454260026740902,20.549270874631958,41.706898466625276
-6.066642428549302,22.41942350874315,5.189025743985814
-8.869005078850027,26.500935681331857,37.0580316350987
-5.7522167133372095,22.940949337893382,20.81742900276226
3.525278247917863,21.559640275086267,2.135895759918527
-4.449337032705786,38.20300523847659,39.274111063669636
6.004980288058856,37.04637237142589,36.92550641487124
-3.842826691867891,39.03311034233344,36.59035067448991
-9.617608056274417,30.665648160252683,18.37099341882082
-6.743751050838293,36.91602747237372,37.88541887922568
-4.520039548500533,38.343406415184845,15.351621851216985
-9.098316492600404,33.957035512594025,17.05067071094848
8.325187448218296,34.525402354126065,30.903786297751633
-4.979686294245145,38.37741898646362,10.005233612456427
0.9733430102767686,39.48269008456038,22.523782131926744
8.571267945689991,32.809968219181265,46.10054680905853
1.7122219054021648,20.955219017901697,1.1775891702852703
5.4603071641895315,37.381182224116785,33.00239563435803
9.153378282020444,27.81905283118381,39.725409902928746
-7.128956988770464,23.63042962024838,17.538961352011196
7.758923390065524,23.838697169250878,18.284626038051915
3.519829178860236,21.703088997109234,16.077095034626975
-3.4377726790080523,38.966535734612236,10.580255957089967
3.402300183396263,38.739357211241135,49.85215698835997
7.526177226096379,24.899994711464785,40.75967153290576
8.934130402158365,28.740826941091093,0.5783942736447556
-8.204703603976167,33.71309523878284,41.91987403724601
9.571723623509142,29.433398357323142,16.801764445649404
-2.8214724408008256,39.08144222649748,21.674016904865702
3.390797667285912,21.522358154935,42.884607057287546
-5.490211331725153,38.25078400882987,48.79450262358208
-1.3571028678509562,39.29273567602657,45.6401393872156
-1.9052779742841925,20.86596782876387,46.53153957753199
-4.569084492160307,21.99502035661463,42.83445709614158
3.481425940292141,38.759296763449534,2.2161139642677297
9.756961791819757,28.753651996821375,15.949435218117664
-1.3322792455322665,20.523968436319123,6.30401066804146
-9.447101657883339,31.951612009857982,3.120968682442171
-6.68414697550144,22.9667180549813,8.854278450087987
-7.866396927219228,25.407634840365578,47.37974685702024
-3.0373241908736466,38.812761060585345,22.355157588806442
-0.49967743422882666,20.56790151719574,8.026400105810216
-9.416473799976101,30.76128648483149,34.37858816301185
4.738915500359513,38.301179590405994,28.74963188525116
1.88927727577605,20.997031608023196,44.934300397334354
-9.627187748084765,29.49828088722343,49.267992641094786
0.16476233636512702,20.542386454942363,31.451645219236614
4.700686081871097,38.664376960799075,49.037346349695675
8.116992166082303,35.08825960755113,31.358502961178075
-6.178638006755249,22.501277095942317,33.06782307413693
6.410344417720429,36.89278537055072,18.002747261330036
-7.874708993096803,25.604934364367303,5.147313613412418
-2.936800312699254,38.55754738980441,12.153270869332445
-3.120620923798127,20.7033812725226,0.7178482745519299
9.805827094826952,31.428354590277557,23.074134946279568
-2.3657791583433787,21.007468583052837,44.35529517823873
-8.11683363348141,24.305007135349868,25.00092963900346
-7.894114160458155,23.996418616204995,38.489932858290594
2.3174180041164028,38.84444868176786,22.472077571638877
2.222691901386288,39.47231751500678,41.001642893027004
9.464593924701845,29.031676949552576,48.63121008717617
-8.23230049392007,34.65930511802643,34.229589381400274
-6.050239281967782,22.20979380913107,24.950596434745776
6.039917886566275,37.63386765757673,27.437598435334554
5.566677960057076,22.204369781681898,31.958729020691035
-4.322045213466341,38.78464888163691,48.95594228290887
-0.5863438943758823,20.626450424420355,39.80924152692864
6.558169359186149,37.03501473354871,41.09770884202421
-6.242966768961118,37.01167844220354,19.47852261371467
-8.385665812195155,24.564491445571775,41.93959453918172
-1.4364832122803035,20.783693863244196,13.1514956108721
5.709495359439706,22.95539233133768,47.45107479826515
-7.858667862452607,25.027102267147846,29.940533572037776
8.833335975408145,26.739119651663817,36.96809759947946
-4.251372005560503,21.252224593572052,14.230361136054492
-8.853888702010579,34.25041224836748,13.104740935143672
5.0323303626783344,21.917001055917776,11.916918601163385
-3.1449174423394126,20.918137330564704,48.67793438077888
5.02025051060619,22.163305415862,5.893413358151695
9.391947422256983,29.396170534364003,31.941407860606297
2.6423874059721206,39.48068700187453,39.396441862602614
-4.270502473386535,21.01724504681753,22.82210956499149
3.0617595115228955,38.80525512007213,32.70103126872352
-8.248841418640314,34.889372377824465,46.11095394081023
6.442977984033406,36.930660630615854,47.39588017024543
8.99359011737308,34.26803540331561,15.937109978090664
9.512482389492034,32.93539427856471,41.58934957218302
4.326948992162954,21.396277803292914,39.33344131181503
2.0147063824272364,20.75180991059215,32.145730843336715
8.889299859151226,25.732439519184314,2.301505470004106
8.932306122894053,26.804736926318657,42.163610750833065
6.542421485907364,22.516387278500996,15.813937754355056
-4.15216874501003,21.472697058632164,20.01125946634022
-9.374926387656169,26.73012273331414,15.259772036936026
-9.257137971904813,28.20313248360583,35.383844327293644
-4.230041093194659,21.691148012427696,7.9219821714190894
6.500878574362835,37.360115612482275,40.82705270125228
9.590909137134703,29.16511631937925,4.7735977342626965
-4.868365124192769,22.157991191523834,25.189631863123708
4.491160767284644,38.50157644341706,44.59642035967341
-5.573132953426968,22.01467956832602,5.585686208235496
-1.8364820941292739,39.103408441771386,24.84096100152133
0.6939252252836967,20.240969304790887,16.656186401767748
-9.187029880426158,28.047011468609565,10.569552273679438
-2.731964889949588,38.71235807354185,43.25495115500899
8.16967595665149,25.338456134200385,19.487728560751695
-4.012166730402262,38.325277031200315,6.946564962706447
-9.006533681864024,31.019502672505077,10.390875507793162
-2.4907344790673576,39.182667756014126,40.66528725131634
5.707366350049134,37.809029280600654,22.210806019646196
6.619469848450883,37.39763069874262,6.008424348297608
-7.440208018947068,35.83439395939522,13.941715612197797
8.807142163484631,33.02346610369516,44.43157674683204
-5.645712774259473,38.22850966296122,32.44159363052438
1.8865665489666135,20.639337373161936,42.944213673974296
-5.2944395691025665,38.112438913061155,34.65554461874928
-7.0227401466331125,23.472924390451524,13.24058916008467
-9.276567586221217,32.782046698915394,20.52827416932835
-2.606435169654191,39.20858771288839,23.51434661575346
4.581211197416684,38.58408276289043,33.78452579738117
9.120090201482194,32.45053167764776,22.412227140610874
-8.991133049783297,30.57317832243276,22.776227289008332
2.1339170557619926,20.434234722737,9.51415537856502
-8.690584051725624,25.447118719283086,28.096391996595692
2.2225886332090052,39.34755637204205,8.315140190291103
5.931608270127514,37.666887191319724,37.21178504085779
9.215573107884932,26.929774058817344,13.859929372225722
6.633144318231404,23.908665407704753,9.190402902150751
-4.30655354755766,38.198460694324666,1.7773031594133903
5.82012995958216,36.95130588586309,48.02586174710311
2.060422296325892,20.863329480973988,20.10464073460926
1.6108888158757637,39.27461660137304,17.162683267059688
8.269664778541395,34.26677359575504,0.5123812167056263
-7.796577318983021,25.22732290971643,8.993858307066077
9.25541417486137,32.40226653103471,40.4747288142189
-8.879195576420111,34.13880574646477,17.29168211484449
-2.3825655299836845,39.70491251901558,12.780385086047241
5.7463235953067775,21.844963008775405,45.84938052808531
3.629428258924095,38.372640666679885,40.75580229667368
2.655162587272027,20.845278271482144,39.74554690788323
-6.729282440892403,36.14490622971743,3.428611374264201
-9.63957705389874,28.436498657294713,38.08858045463414
8.758325185811199,33.45770853641095,27.8798513731875
6.996449483643207,23.60758124865361,37.176451875093804
-2.5238234735021323,39.25505400553047,14.360448485730048
-8.963058986911758,29.048316381094498,29.31302734363986
9.11925788928464,28.81601419695828,0.33063550423174104
-5.17606911060886,37.555979442383354,45.77443433116889
1.0373153086997966,39.41266213425987,26.089043675671174
9.185599874962866,32.99852993951418,38.079213684062665
3.599434215739403,39.0853884527495,19.88151461608419
-1.8437274493844453,20.464351773024575,33.09478538276842
-4.951508828014275,21.627248837297902,9.164940358059436
6.45509963013446,36.966963535406265,48.77723200119487
9.176035599837194,27.784172878710642,5.855946633189829
-9.176158155750576,27.128328052739594,27.635964964201182
-2.5793530601965364,39.523563291013474,27.87924232419335
-6.174166617642759,36.98526812568876,47.25736466020154
-6.806871110007894,37.27515087077827,25.94505245090744
-8.519998423874474,33.81470406543478,6.08398057688323
9.107318648689184,30.918786493258935,25.570019335762645
-2.5167227743605194,39.145936277009596,37.444654822402626
8.897927955821062,32.359649528065695,23.73038811182122
9.217247975581992,27.072988339226725,43.40240635455156
-2.4672310554226446,39.67543342145872,37.49711984597607
-3.344712169190898,20.754629335756178,27.008908110569386
-4.348367420393739,38.95996662246239,29.68732707451245
-4.857987938990518,22.407831461464692,17.36877220597085
-5.2523168144297285,21.56542035120846,15.49104201746383
-2.7774200136265743,20.645493009570238,20.45048310073765
2.0819630063972943,39.22210302636013,15.01957952331665
4.533824233406907,38.127823505074254,42.66978945764723
-4.629908002590254,38.76087198370509,22.513913296187045
9.698668067128926,30.479636183007532,13.649750132967181
7.559448124476552,35.527641120969264,19.2167988975216
3.1340198932915153,38.61558905926471,15.298587506531646
8.590014893432722,27.086195258046107,15.365218034769546
4.548814528672836,38.31371489814823,32.53491541341316
0.8685538251042337,20.49709366460052,0.6352068954486589
-8.715290634097242,34.2523946409793,38.553735630358155
-2.8305072678264405,39.19897286689513,26.297976395277544
-8.61194518842458,32.927405435406875,11.36942780676497
-4.399181707621627,21.06075595156798,40.738695892371105
-8.823144881017036,33.56917492593965,6.846931398129602
-2.5209425613075065,20.874800392135754,20.039515901468796
-8.616227171403507,34.121471640155534,23.886911779807164
-5.171523577821666,21.91993280874425,39.46603203594209
9.64742171283789,30.175743663337393,9.35818848205182
7.452777392570143,35.7024143387528,36.16596263379766
-8.619375286501935,26.311709420326636,2.4623308120736933
4.7279416452369265,21.662776378218233,24.509646195766045
-8.411250941125163,25.638858990469828,27.8851960104071
8.389541140617752,34.03682909640521,17.377034320034806
-6.353035804469513,36.43496695759854,9.633896272500703
-6.54642286015421,37.050026433446924,46.13370381824912
-0.05934966240265057,39.69221491339627,14.523863085337856
-4.548868935094185,21.849607520695553,29.93010871488518
7.928542565158143,25.49076569092693,13.529364447780074
-7.911728883921753,35.31803789328821,6.07788150148576
6.204242335202987,22.388840950424477,7.595362479949175
-8.149785883521213,25.34177527426843,26.624689398875212
-5.563980866907759,22.41479434458471,15.608576920079214
-6.487388947326022,22.991723649646126,42.806144551501866
-6.237013612447082,22.948549275088972,5.193199654408093
-4.68080472548982,37.73872302979421,20.821619605515252
4.864079722296415,37.89220267162559,36.40676982917437
1.1900925446439885,20.28506184964315,35.30937815517396
-1.3702387912371268,39.63784140043704,31.067517216034684
-6.627147611607738,23.835280048134724,11.46073720132928
-8.423435082271995,34.487256141948016,12.990601121170286
-8.166376494847903,34.94927068991323,29.977811518546353
-9.16582952376098,26.95552849378595,36.496026059668765
1.3219810235104779,20.511623507053947,19.17490794879506
-9.45468150972003,26.823346062808028,23.00865975699275
0.9505034372735369,39.701289120663176,28.110746452939427
4.162072564200954,38.738060299737796,48.20062776125439
-9.760390929353882,28.695627832172473,21.189612978661714
-0.9529910350389673,39.95068706807841,0.8954643937820916
-1.0608092700152574,20.185624160453656,18.057304336500046
8.70334745977989,27.04586007602439,15.940637925592782
2.0604203921146245,21.105198710927482,28.22247274737078
-7.14539559744746,36.78645128914456,44.43571521704286
-3.5783505139723415,21.036288628087455,7.813270800635818
-7.672404324091556,24.442451198576048,2.953325053303119
-5.427108881961343,21.8692966012265,29.6264163701687
-9.37019269859717,31.52093980686405,40.08433450450048
1.1430679570763222,39.74499881596046,6.703348077711957
-0.0014780556042033317,20.203037985667358,16.54789063117078
-9.0950926087625,29.644562893418016,10.927567968377861
1.5009296086358788,39.68899673888448,10.54552582834669
-8.048568137406674,34.67869231417138,11.510534840991971
8.221317734897033,25.742719529346,11.371204516966788
9.780990050810143,29.386307086127694,2.5945517340692
-9.245076769680395,27.277800761522016,11.860135883916346
-6.780904856008528,37.15075414141978,40.01006596113619
9.037340386963868,29.75623994656776,0.7322064427287778
-0.21060222225676947,20.898765233692952,16.763730837310085
-6.99307405858021,24.205548454043875,0.9674539023860729
-1.930265116060832,39.38666759141206,7.502201979718681
-8.298930758914718,35.06559854392255,31.196548764123293
-9.368259273578625,32.10815913255745,5.153665806650521
-1.4340766668823424,39.68056427447007,3.936912799366854
-9.427392888110301,30.80434099654678,41.472863165853084
5.83201872487838,38.094988929809624,19.704425301879198
-8.142902513685824,25.81147385673347,36.364473055120186
-8.856648405619284,32.79687849903428,21.294529713600458
-5.025662951131752,38.48488663376343,7.8022420862557675
-7.43472415899031,24.29994459424016,19.01210986429394
8.147278703361648,26.129860051136976,27.19557309692437
-5.7160337354580815,22.510336775990563,26.855348476429803
-7.717090266560805,24.63062501581424,31.334031728789746
8.176660644881286,24.747224672788086,2.675314473741036
-8.901470995893101,28.44139117221401,46.4507830125912
9.30787275080042,28.670107343070555,12.135398209889125
9.845300637265144,30.932923801625183,32.2919729395319
1.0435548938866641,20.580574347464285,24.914841599182854
-9.0414035963299,31.419644896038104,20.316950289866355
8.966395622509772,34.335480702973385,39.32332482140047
-6.5292123022415005,36.63335386631732,48.10762721136485
3.6977951308588266,38.31601664840271,14.338122170410255
-7.653424172884061,34.948098794793566,24.303228422085454
-8.59842311381307,34.02719179727055,1.5315668821292594
-9.66976242342131,27.76065141803462,4.385768573284321
-2.955354206152826,38.78774481519358,6.5297828376691065
7.177688059934242,23.156446679096707,30.681811362433788
9.210963636842129,29.033705910713966,11.321574470750573
-7.237963718270311,36.69268909710514,46.64257837384653
-9.158718826412484,28.0544428930757,23.664540059825068
8.784605196983405,25.512888547014285,32.88714189889232
-3.495245082835285,39.31696944537262,43.45692337518557
-2.540238819279869,39.04391874127661,38.47942293580101
-8.437972921977334,25.90074476791525,31.923469480101456
-9.435953026162615,28.92749626890087,21.214494562033014
5.000992856488754,22.256792908020778,11.930284677203762
-6.472195410632031,37.1922158619202,47.08546273221331
8.401221653366463,26.458145751574914,33.7129927262311
0.7254340416441437,20.410536771072614,30.41757583697107
-0.9629195224227318,20.178178312333394,15.401563854188188
6.1931546027652615,37.63775610822113,45.80121847544334
-9.741693282755472,31.711279317053656,1.3781473763921581
9.493870853179232,31.97023351105686,42.99481202904351
8.057823561366813,25.874428705290207,16.317584742602687
-9.34866293367812,27.352193635326213,39.61821238655527
-9.638981450943756,28.923336697567905,5.013032445043497
9.024668248069267,33.54173938283282,49.80715428853249
-0.4451007795592867,20.762801642574523,3.547920991663217
8.903289319751925,28.642951437045276,0.4005760725843299
9.327691196766745,32.1292265025696,38.93248771714519
-8.389180499265061,24.567595334455508,39.30088023660823
3.1733090997240914,39.4729994113001,5.090029100345644
-8.461144354298375,35.192448081411726,35.29314618106857
-5.691304922459584,38.1331556554337,41.76396263249185
7.2512923123097455,36.23065719172656,48.85430955261552
3.1533913884969453,38.716283959809545,47.5333693323201
-8.7725505045755,26.323924666102673,3.2585444855622647
-6.977289621256749,23.868204532975007,14.05612683210028
-9.296346888239604,26.449091913316337,18.40533044293589
3.892703160853507,38.8473313634879,49.59818404346733
4.2985623365254675,21.94624004885281,2.226722223241673
-7.413473375637477,23.854373431450185,8.737513837724547
-6.917748164580517,35.85831921130518,35.40715763303367
6.378201592257341,23.366331599151692,39.15665935249382
-5.538757791151592,37.687170691452046,32.99758691431948
-9.787113567632469,29.9902735476769,14.993950709176124
-9.352996698833092,27.180088282198266,12.504602706329775
-8.787782648354938,33.49502087494705,30.09935335979784
4.980476661808998,38.10107017266439,12.119224196858802
6.563287450374281,36.97233667820177,2.6680412105711704
9.24830037442643,29.524261925218923,36.086349083858984
-9.428936861959402,28.81646118731281,6.819790811562331
9.401787370571215,28.54236081619436,20.400596208311423
9.257638335608888,27.597535441594797,32.49142650575923
2.9118470671948633,39.15761163184874,38.295122930293566
8.363631628896497,26.435404409913602,18.830287020167624
8.671365722161978,26.126419617178875,35.94580991888346
0.4132414742211084,39.04584003106878,34.55396941539347
-0.47105619390694176,39.279480074247495,28.877103424534383
1.6776609672404819,39.709220929420326,18.520411822740492
7.117203149330505,36.706640237541166,47.93942258725894
-5.571907228992597,37.43589932287192,29.273704233595936
8.332587904188125,26.20730425777457,5.938656735602193
-4.612082474656612,21.38757373151533,27.041447465901562
9.661874174592091,30.432718705049382,22.910138240168997
6.533449329805937,23.162935117677232,13.38823209394835
5.853819853535373,37.277063682168034,9.070234493208224
5.915463142542965,22.79596101723883,22.23658051322151
9.5707910220162,32.25138895114684,11.638787416597879
-3.6431403858407925,20.733785786555465,28.732384337309103
-0.7083411902853557,39.3502480329821,5.6848679877613995
-9.157018781180021,30.73419181829319,17.029206755366182
-8.954985996800579,25.59523230938964,31.96135223908176
9.472788759080995,30.817311137136528,8.99480116698142
8.328103943720802,24.601247840319502,9.405801259250818
7.148916355003383,35.553265644219394,25.743715894885437
9.351790939168708,32.926078108337556,18.388955058189666
8.791508326316333,27.747849241052794,38.36363254146727
8.532966683453152,26.575355584896062,19.81958644571366
1.7692751095311086,39.6245910830289,31.486977838191716
9.657572004217302,29.57788813528756,1.3802139004581215
-0.13095333917727453,20.016456853759045,30.28824704549425
-7.573124660483876,35.63637720486897,41.40905728309674
4.083078566649977,38.842742002251875,38.66387552491102
-7.753906275066343,34.7679513603521,35.333639305595014
-9.143247178478477,31.882743982322523,8.61508152297552
9.222258298408791,30.841557962049105,22.617358589920112
-7.274209243487028,24.525983490281586,5.869076680211865
-5.251585363022151,37.56296907361879,14.915529924731935
-9.316174246463822,28.921389239739838,31.727925074376845
-5.505339578982728,38.20387117017446,8.403441864110361
-3.1986228059538466,20.698317282035806,33.54379986258855
3.801847899934921,20.896991978078717,15.302556794494576
-2.3801512808707783,39.12458752183156,11.98254700237628
-0.3925127495072675,20.969417289827433,38.4419349165294
2.8311653368837533,39.04524766637856,31.759806451481293
-3.648003708840339,21.047209960479673,25.718920359428658
-2.5463992540313583,38.7737995690464,44.213391953127925
6.735090411188716,36.575145900049904,22.2742361793236
-8.97029368607606,27.795050202216697,7.647671878462186
-9.288890824165001,26.54081863426551,3.8408323309278734
6.158814554945032,37.10683993704255,8.856399372398116
-5.055304482366104,37.4768542185805,7.586257066765828
8.29980254726191,33.79740334559391,22.0495504080241
-0.6231840613477525,20.37385219560079,2.4243740040818587
-5.090411732080653,38.501061843276055,44.43033429032809
-6.550736276080271,23.54450045327102,2.965641609298869
5.659897011704812,21.962886559637113,8.70349532518544
-5.823575952079349,22.952362117379014,30.661210114933972
0.3350206235363495,20.896559890365445,1.2234290514014812
-9.91894824267719,29.151639147764453,16.599396033941527
-5.528415232692649,21.77056803862839,35.926825105315956
-9.357828148708668,29.31334192076505,21.611583298383223
-9.129220228262701,31.379189670423315,4.0154830145850475
-4.741406811404877,22.088313880401046,4.657131336780651
-1.5359678060643656,39.48911383558645,1.207596420652668
-9.846022397472629,31.025238608065365,2.909670503394585
-9.912067771632353,29.713340951344783,31.82788506471737
-7.512135072841306,36.12592082302369,16.90843330555598
9.50174808654029,31.406929211958367,19.525453098185913
-9.242664438139146,29.649234628223812,4.044548913616036
-8.785093468468418,34.4176508744616,0.2658991390612986
1.203358397223141,20.43105308016741,43.23076809299958
9.92188465061066,29.472877324126188,23.09810139723322
-8.618237500073091,33.611072458027266,43.713026562485055
-8.962649585438102,28.17667460234946,46.83094650969914
9.893668831796376,30.057165025089255,36.27060598904377
7.370582689877366,35.865958423945074,41.83517928410973
5.267817339361036,22.596406371870188,48.72661147060381
7.229343280642661,24.1687766467989,49.29901513420245
9.592630035363818,30.32199896126894,29.269419012202086
8.42367770891753,35.142458069069605,36.19531413825504
5.71931505967136,37.65466062738636,2.4613620710077058
1.670097607416151,20.833457167914972,19.247367959356197
-5.659238284742524,37.84768366517421,7.424005761041819
-7.7773438886824895,24.340294357697218,4.80590114298336
3.4818195840871713,38.935154908397905,47.94272858970523
8.992126318701487,30.798546936161905,5.8947984006431255
-6.763412201890996,36.19009102743287,17.23203053611958
1.167584339773524,38.99289510239686,46.71784259922878
-5.8512612613976245,22.073897086981354,30.730182671984114
-7.846394582173686,35.653699039859646,34.93342888672982
7.598388519443125,25.018562045173432,2.2679519243815784
-0.4805218204378254,20.46319074903216,45.30532359339806
-8.542718178278848,34.19885323447874,49.43181514599878
9.388760808268906,27.510096362347088,22.247520852438473
3.911824603859101,21.17878220297096,23.762157614815184
-3.4138841038995924,21.327116977930014,46.16995958020077
-1.9636864588369527,39.03425719450471,1.1605390014924666
-8.678811045955506,27.553647612229334,29.085441567351417
-5.839144813211722,22.116171187356837,2.331476257052972
9.739198181466833,29.605419564291267,30.437815198593775
7.46004960511099,36.134391287573095,5.877360174210433
7.730525088848773,23.662112429151314,27.707826839096867
0.3326006738550094,39.49479413098173,35.26283270814377
-9.356756394708752,31.637834967704663,38.27443233089357
-7.54700196271968,24.897479950210755,30.921350801448916
-9.289340316007541,28.93632249276696,21.69023007855327
6.1991312330778925,22.9630874346722,15.614578643044036
4.242088470626612,21.07226848920159,9.735287594280617
-8.100390083944932,35.38038162266702,37.74113603267297
-9.114225530482328,32.31520824851772,15.581182679730677
-9.480646940270006,29.424480371746068,36.01404103238789
-3.3398552652548457,21.61386142159946,26.98376196598265
9.34907074764465,30.41543841602667,47.46054938680875
-7.722286325376319,24.424104861167265,48.6077293968021
0.98134248347572,39.559812882814214,13.90362421950746
0.18954580421841422,39.712697996652665,45.61848314970676
-7.449956252425634,35.77220020947776,32.13757627819526
-7.592160258065447,24.405330319397176,27.107792839407125
-7.761570378316564,35.92157308906485,39.84770486230113
-7.940981767976387,25.26860258095705,45.41099293560253
6.218453798189977,22.33204735611889,14.761121513925756
-5.954651974085174,22.04269186352994,33.70067232357023
-2.0193393977919274,39.46241395706861,45.139589737467176
2.4512225016183775,39.450185981056734,43.36927436245154
-8.114080451335868,24.314976621573948,8.228381783743172
7.336336376131442,35.22209268557957,21.912305890512425
-4.462745478478864,21.283789900069166,26.154772254276143
0.5423763663374709,39.44154037203795,46.593781439614
-6.6897744400329255,36.35103464582113,12.508839410662514
-8.406861916224067,25.760915018221958,10.629451939407886
4.01929142731316,21.290078407331542,20.697370134682785
8.440411261631098,25.041442694534172,45.87377769343609
8.389541592215418,25.37458633369923,21.454880535649362
8.126174554013867,25.48637192587128,41.06400467330423
3.0380686047545997,39.08489569415289,16.102130986027912
8.981981506679332,28.735917782910068,29.078615014765507
1.5815651099406915,20.9311601856748,9.260066902113767
5.846998879062058,22.403366366443617,3.4482853810512304
0.0501951646786301,20.43655735689964,47.1393409498948
-0.3915310401554756,39.64036577283794,34.79833802430433
8.046538005675892,24.515207988199506,30.5368177028155
7.250632875059277,36.72788533600574,2.4519773846188473
-0.08816541399184212,20.821973564704635,3.7784553377700982
5.36864602235624,38.0614932853495,38.05044355089291
9.027927088662217,33.73772832435511,3.0809406640034953
-4.406318968347683,21.260981375265953,20.885187905001416
9.828516512501265,29.630841947911765,24.232706592898474
-2.9390249647998528,38.99158148263899,8.249398949712422
6.279699902565487,36.557088703709326,15.718130855159846
-2.0199757163443812,21.010547403709584,19.146603233992582
-8.200275927249528,35.63823357822113,7.539908930956496
6.415511684118956,22.859621859475407,49.148407650425604
-7.381772833915676,35.51333558781403,1.9685100602877148
-8.878981031393408,33.61048738882574,38.705151717238685
-4.649145857451877,21.933425904153154,13.60334426547254
-8.836266653704465,26.22873888288711,37.92192185523521
0.9951606240296774,20.05509193122913,49.45833354918928
-8.09979756400647,24.761192103445538,18.449307305935967
3.234214704921382,21.549771471731834,11.947445075934999
2.292552528163731,20.333851525751257,17.214301033429642
8.885788382986194,27.4512638000273,26.321607697931203
2.2836613195772255,39.29416856824189,42.97698663634603
9.002385162278584,26.068257210133666,18.619433010699186
6.3616485339166,23.249055853212756,4.1633120682297795
-8.060043776898468,24.087453087935963,36.68386607267091
-6.219133589709512,22.508820870270355,9.241161937166586
0.19658031280618513,39.77271572229826,22.808192805069037
3.746791638633573,21.670128619793417,0.07780011910334395
-2.598461334948273,20.49402958599701,39.090030556797444
-9.399022586268575,31.59323061753458,8.548993292566664
-7.890025709672027,25.65169079484187,14.884923209272237
-5.822463877411491,22.3313721595803,32.553443690972856
7.832072433313899,34.73372338009232,21.521566461674794
-7.74285003530423,34.894688785603606,40.65723388444564
-8.459618584102486,33.68468717731536,43.03603579341891
7.760413267511345,23.84014391177292,6.518136608845248
-9.146961016744894,31.032501733621366,28.03961395134377
5.094848841548274,22.33070942958441,10.109216873967947
6.472985351066289,23.10727294758781,10.033338847857316
-8.283853048571492,35.459155571111026,17.489229649130543
-9.465859117972498,28.999358260691356,26.414234236232858
0.9744905109485427,39.6601509389105,39.03434493705101
-8.845509225043708,33.516287103678216,11.899599951870082
2.7659433120744685,39.37736014457205,45.699526923952696
-6.35065202480281,37.04099140821709,47.946882266982136
-9.182113749616772,32.883618387093456,14.494501712629992
0.8202202385573928,39.243232230065786,49.091433292075756
3.7790895503103377,21.795557050880113,31.816236269189325
-8.68556681427254,33.33994552715603,21.713133389677903
-9.748594764983066,32.21491530206043,43.10373337847791
3.5687085817977975,21.17525512186241,48.08095099118203
-7.621795428503335,35.56094364568312,49.182065145393445
-3.7848992385494142,21.493467791739903,19.20066941258849
4.549189303780651,21.94837655454891,49.79164651677988
7.319235622679575,24.207763828715528,32.33264685780271
3.752027230651552,38.66919531069618,5.386944836254487
9.486095630474331,29.05105466044094,46.96713805922882
4.71495927419772,21.45163613974587,24.387198415222745
9.497489717033694,32.45985219630519,30.464069765582135
-3.9839792753750474,20.858271253403988,9.924673950280999
9.733841864836013,28.370249029196106,15.236085739394156
-8.22940157773138,24.721322316373403,39.5704839191923
-7.8176022364593685,25.336727883927317,15.667350688531616
7.425357347545903,35.276298729825925,14.15007623771814
-3.521044093842661,21.30739154788396,33.29377822804065
4.068466251328392,38.665501408928925,13.199539776468228
-8.597383067326438,33.35546283227753,19.81932009609178
-5.296873862372744,22.281586944782504,44.014991222806565
6.013635092166781,23.04823195166022,46.03513491715252
-7.898908419795699,34.32415490487729,44.518426053241086
-0.47968638552071435,20.583049787129248,31.17173518762371
-9.40887191885931,29.081420117349268,34.72285620906827
8.761144380180124,26.536945464569126,1.4465807285246879
-9.113067567464672,32.4994430854605,16.247035180840346
9.179328918220083,32.95024266898582,35.260880743282954
-8.603011537492044,33.3098883081035,40.05954820028109
-2.1136313757963063,39.63607807781467,31.365604282728142
-0.20180022019436072,20.47817242544795,10.146122514108452
9.231933421937544,29.301232635064217,44.22547400376409
9.12575064766793,26.91223796512868,4.188258731001593
-5.261852793112011,38.29291406203785,35.55099524493584
8.715977348073332,25.099029201964093,25.0073722464117
8.892606456683183,31.80370624565482,4.269802922506482
-8.221629387763357,35.67999949696537,29.996385014495786
8.461507381059858,33.41279457964526,16.443288690598802
9.321079336285676,26.741320423973402,17.244495557663665
1.5239816470901557,20.47018686429365,5.113733293018824
0.8815114119033234,20.081087027429625,22.113760103784514
-5.895658817778238,37.729047075658045,5.025469489237966
9.136388042199767,31.257589676615893,1.4327602706182552
-6.063955176155731,23.19827797021951,47.898999825746664
-9.33635239830835,29.703841138204734,17.783118574532846
-8.158478233369198,35.279075899305404,25.812029201899296
9.40668039047521,27.370888732646648,46.336158209536585
-3.053007912169318,38.563483661181834,28.98542968332572
-8.731452629361735,33.236846717852316,32.52362943009546
4.587763956102565,38.50323492572151,14.931818524249445
-9.565068618039172,30.073481503230543,7.033820542041464
7.741487219699845,25.356021675920605,34.32436164744095
8.026311265789829,24.106145677601035,13.722673345390119
2.8581568133616524,20.92520420346699,42.594111882034085
5.910112004458198,37.45577142291381,17.035009713223953
7.125106893070797,24.072876993196907,45.990592912404516
6.941213047644126,23.285121183199813,31.966628017897925
-8.570701158484555,34.98352329519576,30.521945493007696
3.865448172159232,21.3100669168936,15.630255479729371
9.041645008485723,25.965926870771693,27.232721816996698
-9.474222784647232,29.04990977851882,2.2673592763647
9.056915403367226,27.62531496697392,30.800985461375024
8.192358066993881,24.677697254545404,13.232497844184293
0.2348813197617387,39.2114573699989,48.87164242773181
-6.958810915019122,22.946166261311287,45.04148804893267
-4.8340679518909635,38.336817297695774,22.56322169494245
0.1662638209192583,20.23502471127494,9.765106689619852
8.707960885926811,25.40294190860952,46.864332988237585
3.290555659801179,38.79856444675322,46.29410763569046
5.018028724399642,38.49101612804061,28.562238484838943
-0.2237663778965919,39.96730674321552,41.13206481707785
1.7697394028258668,20.838432552083844,17.524163618932263
-8.364248225028707,35.42910895614368,12.392135246919489
-9.543005097554314,32.20830365199611,42.165073099838466
-9.800285880793144,30.082473401381048,24.046620814812623
-0.18198564302887912,39.27631512722166,47.484190009780214
7.505229014708711,36.37159599429644,17.45273591514796
-2.4943595385433497,38.66926693962262,47.736595860002076
8.896859548864251,33.39453805912128,45.28168583467952
-6.111007701315881,22.87152001420372,1.5864269268185183
4.373551358199778,37.94032467286649,47.10392818235671
0.31378847658234793,39.563369885480654,13.692540764761507
9.747249309521477,32.13994809613996,16.407542361871236
0.032271599978194745,39.44586579642455,32.654870881209085
1.9269288669799738,20.845712619370104,16.558141388580143
9.426814561428504,32.00879979393354,14.588953587524422
5.835798774636848,21.987108656840313,10.044134259966969
5.158029306721424,21.815471800374162,14.524341276713843
-3.7728634670795023,21.36826652324963,1.2971782874325821
9.773616020951875,31.601964463452397,24.76839827934046
-6.04131313353289,22.818935638689517,33.01344737211667
-4.867487287363915,21.752243616579747,43.685109978857604
9.384963926785266,26.76544001029615,32.67890412394456
3.3965377090098285,21.558479487612445,12.681384941022788
7.716782526733954,24.6841680344714,26.015036084752268
-8.723153973951673,33.292055543697096,25.899162446969886
-9.028191758271056,31.791886871231604,5.8595977677377284
-5.300966175514926,38.44246794675287,3.753227589067926
-8.867097867258131,33.00289669075975,49.916261405953406
-6.506742444586863,23.161045985921987,49.990980348583044
-7.256960685469059,24.505984191174843,36.108547134999945
-9.51747942163241,28.225506268310085,19.256992486938685
-4.0673212887045205,38.8881757026193,11.127706104585517
9.05980930786875,28.342066231201112,34.86166522193391
-7.9870335245248345,25.625683706489653,4.691531271227866
0.4765809290639983,39.485053503421376,47.85566498471994
4.258877326944585,21.32460423739296,12.468525393310653
8.712438839769229,33.380914988720406,22.547736715708183
-8.936376104841848,28.355982946559536,45.351976247837335
0.904393028719034,39.05806871454713,6.017985861153308
4.480403506424052,38.639748288274546,34.56784921804276
-5.124291905427326,22.534538511439397,9.002673984005028
-9.014774489662473,34.250511116982224,34.7953914669359
3.8651875564546416,38.293256797363284,29.393266082668696
-8.81218405220315,32.16516789953939,25.279278178853115
-9.362203086758834,27.478809629736617,9.312878496178916
-9.052285652583183,30.363702552291507,15.946665405015437
-3.9950058998130595,38.2296061191788,45.816188773583
-4.369744080180052,21.369779585015095,45.50988535363383
9.184945124576583,33.86554270427152,17.345838226355433
8.420440159947331,25.268659478307313,46.03728406951764
6.470974854097769,36.52639099025392,19.41185037418554
9.285609625937767,28.316347003871336,10.709113410318821
8.891500824805947,31.47943887816769,26.466560436344032
-7.2407803367883625,35.53976651470398,43.00711652823142
6.317528873919853,36.47553160141529,47.43554449360262
4.669101004486419,21.806015403158167,27.00403861406419
8.387014148212497,26.04995905482571,47.01474177385484
8.974441981954643,25.797736972509497,16.83739596454017
-8.702376587728505,26.071587163695348,16.705642578428147
-1.1124308715457443,20.153447575820245,11.902238076237182
9.250266139920296,30.158807397165734,20.44041939045548
4.914573936421735,22.296198666871387,24.891037513490343
-4.332751583754298,21.962938753167272,22.867269919037753
2.248323210009583,39.1734243725159,44.932890560957624
-8.255061773151262,34.40571295340635,38.69815314785892
3.360099744109052,38.471984020547445,37.59718148600619
7.235534894714238,35.66331316198065,0.107488280957313
-9.640272002573665,28.23223183975686,33.3464633752712
-2.9285605592276998,38.908293156953995,36.39826009594829
-9.226913202692888,29.089475818990085,44.61374930675313
4.363509904553674,22.033637930830373,30.3990927414984
2.408059468122602,20.61806076345687,39.77972049657341
-7.225854128830908,35.53531488880785,12.477851589228372
-8.370030921343846,33.515800773880635,39.36086937070253
5.3016694522504375,22.459879611004443,26.673273552024117
-5.716754554527736,22.789919067252168,9.355242618325626
3.2347450938025517,21.59978765786014,5.978379156859059
-7.282844142178545,24.12661960146217,39.502518229414534
2.840673955478779,21.39096161432859,30.730362059715393
-9.130763760078791,29.253446130790277,35.58558202269713
1.0527651325961451,20.06832947082542,22.262080519675592
1.5659263701862134,20.594753744515607,6.211601787047699
9.05790051630423,27.311237827562344,37.62876604296048
-1.1573225082044674,20.604383746065267,41.84166179761167
-3.313784297441697,20.647365267476207,15.705771408594165
7.806790899252187,34.75424152526155,0.6737050039878345
-8.496594162685174,25.419862287345914,49.04188350983097
-0.7885398280982348,20.543405353805003,14.646903207394747
-2.627126074697438,38.96871489419994,15.741427934034435
-2.972944849335527,39.37338413794707,2.2164385523717414
-8.572563373904956,24.91715723627189,12.210838391033624
8.15586902941642,25.297258828040995,20.12511342207138
5.608629409119731,22.083764544715017,13.160217222247134
9.857318742725619,28.587891400223228,35.625122786218164
-9.430539332741432,28.28954135773902,29.850494619234436
8.95272877000212,27.94413097761581,4.82365856955917
-1.6824880763379708,21.152883842475465,7.782394481159582
7.883354374702462,24.132717158571367,41.264639540598786
-9.57509026371604,30.50442354525737,33.76883644257745
9.795384043711692,30.936600214466946,47.76321430332572
-2.526010259752789,20.936949107663118,4.264884148791631
7.07400159959283,23.873027405857044,5.04295838276832
5.9595967162152315,37.87311747256868,5.476473794790671
-6.788042881574583,36.97293891710829,28.539427778231875
-8.159761935605076,35.63320804281922,40.17041885513535
3.443920589576026,21.158770872157838,35.38211926203102
-8.030428752157043,35.90797583798498,0.6927927969667513
4.666931517935663,38.781379831659564,17.064018577604806
-4.9420525132031505,37.63360978733819,16.794317707454116
5.702900374287472,22.060403785333698,36.08634423134136
-8.805927035801197,25.455430516591065,6.613500727854743
3.571636302545307,20.821667048869905,9.24815428065719
-3.475521908348344,20.848822820961075,43.012456052087025
-0.09598298496203798,39.261165304825866,31.59761620476259
8.037463679097218,25.23958149333989,0.18350069074517528
-9.293788180622464,27.8853053787367,26.725640227036752
-5.846821941070437,23.10052223845097,24.13113695835624
-9.006539122673363,29.909096092226537,7.934675940754493
-9.18013199218182,31.79165178469816,5.61744231878304
7.279906025920085,36.85002499658906,2.857004050994277
3.855342191090743,20.9267104248123,29.710232602500486
0.9956976004110133,39.84565889750199,3.396845679607069
-4.533847429415662,38.43790313681909,32.83558589784741
9.111155530157829,29.919871205433658,12.95529779920912
-5.771776475034947,37.37397360353318,4.801487950294414
-8.552495912819218,26.367979143634475,22.28924176173385
6.617131359525414,36.61986860352598,26.055809749240844
-9.187698536299177,33.34136680962675,18.9030898947104
-5.9987594047595865,37.93315159551677,30.223897135293615
-0.8101904402881464,39.25679557008926,31.378633121092363
-9.540324472915707,30.51881340629597,38.73006992360919
-3.1801528184906918,21.543906361806062,30.092999032493562
-1.724633757171357,20.42855765447727,44.22675130601604
5.58280337669111,37.451037207025216,3.8303284468125867
5.18623201708943,37.35548367917734,32.15350535741953
-1.7808332201504296,39.17732810078023,3.755702613366169
-9.259105616304868,32.31217867899022,24.152869302775926
-2.1125184510915833,39.36941403407232,24.173477872299916
-4.831457727042899,38.403606490710004,20.420616367548867
3.9130395725677367,38.40504370727221,4.324686307991399
1.816981711086937,21.039414067118074,14.558262505028951
-8.686007128908807,25.58664581911321,11.533708448074492
7.903328265957436,34.669287382095504,47.6122062910604
9.879121471858008,30.362089299748057,43.123221479470395
2.8461285086147594,38.58258952627064,25.118486696433212
-7.2844129132907565,35.898155545189184,27.141580683033435
7.856074913743893,24.33450796376401,18.974488059870726
3.925587160505515,38.213023079521186,25.591365099455416
7.333448802374605,36.36940055308351,38.78094803944586
-9.113831996171761,32.581194758501816,44.03506401645873
-0.8241849479499892,39.47313818482345,24.65337310607184
9.849310719944812,28.303029573838558,43.630005311665975
8.584512695986659,25.374165822691975,2.84749376804182
-9.310228466045759,29.638343236794316,29.726704791955644
7.044067510706677,23.164067072534504,2.9318952193477967
-0.31342466346665754,20.67208653227585,15.260097621682133
-6.992277072286485,36.027746280738775,17.595533927220863
-4.30906388164358,38.180526504265515,35.12494214471704
-6.683014445706625,23.667244547927204,33.985822325588636
9.676236577395791,32.163562826361435,17.67385676536495
-8.929394958272727,27.384227101685042,46.62071011203991
9.215996538420427,26.996045294364862,26.12885265895385
-2.667049467036861,38.72440246051927,48.50787608924512
-5.217269613356773,22.112700339005073,13.839346163022615
-9.445841801307926,29.293896578190918,12.023565983733963
-5.893286080493691,21.986122867698604,38.85263522147014
-8.883896935675185,26.185112332106655,6.560184526057045
8.490140885963088,26.901967725799047,11.156978711620097
-1.8075068747082028,21.096067374357695,34.355998320733086
0.8260906000717774,20.524991859992973,2.6237892350900904
-9.58668853340378,29.59529463621725,7.674879732101253
-8.501756092208884,26.764104294050252,33.85739073195884
7.670609355301472,35.41384122552696,27.897154792665646
5.747867734643072,22.27529946024833,31.29252880413472
-7.651786778156934,23.896144207519733,37.87858989269337
-8.090002116885332,34.01828303260892,1.7519177354080762
9.017723920686365,33.79448955674622,20.40006254126641
-6.877013715810801,36.56396695681971,12.259220137957033
-6.730073515587662,36.44905771396558,24.93375566863379
-9.112583671667796,29.163840736504216,35.36953805099714
8.917459624291123,28.0356586384343,16.816799280039728
7.351060795058221,35.472658465333936,3.2201516541413175
9.38371141552699,32.84545442357145,13.862019888091986
-7.704899995664541,24.511637953223396,30.17611320247971
-9.399160926316116,30.599418222262354,12.50839966714899
-5.33545944035123,21.691693144458284,14.298412228820496
9.733248179724079,30.414451124189032,9.72730391124546
-5.879937629734761,22.334219493948847,22.52291829399709
-6.883675602063721,23.71264546513551,9.904175533225883
-5.670359536435042,37.36354080948338,14.716455647216142
8.257794154442298,24.997270301548777,30.780280391004766
3.3503784497723164,21.358159082090438,29.49548892211988
8.64309653403427,25.6107028077263,47.51791308363153
5.714122187488879,37.80514075564058,20.790643719452117
-7.591604196867462,23.609057142420912,24.455857065162355
-6.754884022153819,36.52668906681612,13.646036520171133
4.832490579833252,38.27120237201086,37.69194413419349
9.634828814088777,31.383444286373198,4.544329632215666
9.174562318244966,33.403087715206425,35.67801982186253
-9.381387796885068,27.67147683859548,31.639745023450654
-4.274374463720356,21.873049976007792,43.9111486706404
1.398730850306273,39.81444980770547,22.063573301099527
8.276582878329931,24.6890451473658,13.968391852495222
8.924790189105869,32.039475473483996,12.133862441198085
-9.473901613813174,32.81439259200524,42.669000180474576
-9.684187499630207,27.81114771741467,15.376826869940563
-0.4324197751722176,20.090589788823486,0.022664436918951036
-8.546479563207063,26.942989393195482,4.237593585019472
-1.154681544048957,20.35974449260327,32.989682543726616
9.39801219426045,27.89396224968694,25.175480447948388
8.662475701207125,34.40313740319042,22.421424666268447
-9.290635048062375,31.871576534472965,20.119117109087618
-8.913461967470171,25.53743655815604,29.70656372838575
-4.253017269078818,22.037438168675312,37.738381656605924
-8.73394225962646,33.65724704864896,28.370915648629918
-1.6696037320097303,20.512659906964394,44.63810692019565
7.751401182992532,24.635945166354986,20.72486187329197
-1.0230467716589389,39.44979975451548,1.3792937553801954
-9.740487729716703,28.122680924537523,31.755766068738208
-3.8593187109512046,21.27686054590564,20.666715732705644
-5.400302864314899,38.34222737537167,3.9489662708402595
-8.271991545660702,35.397522368146554,25.497350609278875
6.941613559565238,23.28025104080595,47.01390565103546
8.073913370370308,34.69479048045484,35.110566747123414
1.9302155463605468,39.44511190919852,36.64577924533595
9.880661315332416,30.229007620529966,19.077877403493925
7.582085973344369,25.01401161318698,25.90345224708146
-9.625886922458779,30.896867232195934,39.672536174103755
9.34958145029463,28.091741072095463,17.965914866962667
-7.158071833759155,36.6108012736334,38.668572959965005
-7.0225030032163955,36.70432226112813,12.053689715204207
6.0863930076155075,22.46063675247292,12.232296548595334
-1.011765028771444,20.710260602288017,5.715515870039006
0.3979957394399022,39.502988154193,46.40680003233473
9.802763344838691,28.618842828470974,4.852435955220741
8.262027329736036,24.88526433800086,9.499777659187025
9.305530033492394,27.358051217840575,35.675381258890944
2.7418853177582854,39.132485469197704,2.1884264269538214
3.140832798336621,38.49207104448192,1.7155625475604563
0.4046065837662897,20.812097761018983,5.373229601192286
-7.097529613251443,23.45317295551371,31.004451300108148
-4.845574763332522,22.247451736684923,13.71157343431756
-7.367949254966002,36.700248782238944,32.72022349177514
5.355975012408049,38.14344292018822,23.68593921434636
4.628696738981326,21.22177495520204,24.074805309344686
-5.993020488751292,22.597963560183143,4.450002266382031
7.585926208933272,24.659258527158983,5.465419626440865
-9.300238693128076,31.279489676122896,0.8633864421496829
8.89158939606832,27.646035652193945,40.62070813004333
7.548278610736781,36.452583402251,1.4591769909309327
7.601417570135451,24.70059903168631,3.482325306612377
7.33853620362241,24.349315835181606,22.3386518344587
8.930159159389163,32.57393813954722,21.507608110360938
-7.6109897672273386,23.65662795226911,22.046711778717697
-9.56803103674766,29.172205334341896,12.565763363969989
-6.041966528549538,23.154719121877378,19.469249307561302
-6.979157126167193,23.78399913521782,19.999115685054136
9.080068506904878,26.567618489487625,14.549726934269252
-9.275179212911558,27.650153539490937,15.575042781586369
9.104030739616595,30.029979307774443,29.900680453984386
5.074193109590093,37.777114383942006,14.887047047036628
-2.4119194668688695,20.707436882814157,36.798059773073334
-7.840946467389179,25.040350812710525,40.62224836552248
6.5516301543803985,37.44685064600308,15.806942677308772
-9.870966992729018,30.01052708370997,10.43669610182183
2.2012683162399234,38.94087167875481,22.5356828047381
7.8401786945656955,24.37778349137571,7.741880522749978
9.409667254193593,31.829500213779973,28.628342953163767
7.216959520351129,35.885950381794416,19.365015647435147
-7.3763220316671125,23.46443007652286,8.191632069983672
-8.566318418267377,34.91423412026026,20.350227469255195
-0.3662155332580516,39.14267225476167,45.726022818808474
-6.85424438209718,24.143812264997813,33.91704977690399
-7.4516917560692155,24.402989789173866,13.058393962715403
-5.471224622769019,22.27799029819861,15.589673860013853
