51.23388389993459,50,10.102936671587443
50.03849648240236,50,37.16911566307241
60.083244480905236,50,19.041366587059738
61.40054089864925,50,4.887397280078554
68.03153532288624,50,47.96770152615718
69.04589853487366,50,21.381560038544745
59.89983515941926,50,32.55680024702237
62.6528013211657,50,12.757030256007418
58.16979687613134,50,0.122403385654557
54.83015771327814,50,30.25081152138176
59.11968760874341,50,22.342988331096336
68.07128383041923,50,42.57385583452793
61.56307103669272,50,5.762367157681863
65.86530474727661,50,19.62771448293026
69.84895466860235,50,18.71646163893464
65.7067329389915,50,45.18411722041146
55.554623402775945,50,47.73019038154711
54.846586249331395,50,19.727774169112983
52.69741365803544,50,11.44781468585564
60.72097808613428,50,39.15633315889765
65.37432722602935,50,33.603510151103436
56.62417478808059,50,2.665814103800762
57.63995755348249,50,24.107298964941677
55.03311674710217,50,20.249644209066275
50.382956925390815,50,44.43770001981064
56.32788253080985,50,28.981028119515617
63.56177493555407,50,27.780875273580964
50.35491515443851,50,18.909653569230688
59.71240912221695,50,42.54828507496454
51.77250083961169,50,8.684993653772189
60.66591407666689,50,10.885900168704227
51.17513342833011,50,34.63312039464701
69.12783448963242,50,35.76140702678831
60.85677596035173,50,29.090700255785606
54.872339805077935,50,21.974887254457037
55.667891360537205,50,40.78617564832791
68.70411467833088,50,2.5045479042119014
61.24988470935517,50,14.078853385852808
65.73391386180455,50,49.120814234727014
65.71243327886228,50,13.080726400878678
68.09736708430978,50,18.38205035520944
52.8127290538483,50,15.980791194823784
62.38235740139963,50,15.16181154543072
60.35897674712137,50,15.037690252546248
61.93327848406814,50,39.11480714279386
62.24801771458196,50,39.651455440989764
60.70981173963724,50,35.77189598852135
69.00840381970873,50,19.177098545678078
65.73739597451316,50,6.041209965158339
57.12784196797487,50,22.381039424627275
69.86973509989075,50,43.715780505142604
51.67835700501877,50,3.2976855571579975
51.17328262750252,50,0.888302205203878
61.40611978628124,50,49.59971883910451
63.00505245253427,50,39.29939583507997
63.00172094015136,50,6.32467288825394
58.121568347384304,50,22.84244277825664
56.385128479134835,50,35.73035987802595
52.32912495129051,50,8.971214032461178
56.475502098729336,50,17.085221156298736
69.35871572265448,50,27.49356254521543
50.2604901385151,50,36.087343647647025
56.244141907026666,50,28.241412828718172
62.594561202773406,50,21.191059125133677
56.62533555082203,50,32.5050081931503
67.22826299211567,50,40.11941156580627
53.66855724516704,50,18.987768736935223
50.49729015925705,50,22.32448046628982
60.08152923718971,50,17.991430090846638
63.10547010206245,50,27.04519275083247
66.61027758365398,50,30.926741555908098
62.67942692375466,50,35.83202145670102
50.523273226095576,50,49.49698834134685
53.93763149671903,50,34.29313873063965
54.149657744476826,50,1.0364345056690538
62.28554101222536,50,29.127778902115704
65.5768654275422,50,42.69794423268565
53.882118244423744,50,25.14650922295718
57.00629354062623,50,10.217718901536582
58.98114374411979,50,26.025087556555874
51.60410743987458,50,28.78624420010959
60.837084508828035,50,22.585269057623325
51.260055761319336,50,25.085648138465977
63.17822703366905,50,5.3094883586249475
65.76691902635768,50,46.65257227843241
67.81400638917177,50,22.94563529416785
66.80903377446259,50,49.48908347320031
66.1435341513617,50,42.638347408176145
53.03445587212951,50,43.801154073352365
53.57584856511653,50,24.720116824439277
63.48200808771038,50,32.23763566331006
50.38621037178026,50,36.81563026075171
58.94445735943577,50,25.799983855526083
55.61376960526673,50,1.1056687015512212
68.66378137358068,50,28.41506898399382
51.23725516893488,50,1.5777680866629173
59.68512554414007,50,30.336073418408432
52.26861060655017,50,6.483966192276286
61.92000682188719,50,8.772111459173809
59.53596093316506,50,41.663961658260334
51.800545892729076,50,39.05673136228624
50.75684664968875,50,12.01646523060409
53.650104065738276,50,17.43649308820565
59.67347423703527,50,35.91366500511761
69.92468204689348,50,2.0321064222685203
67.88321103088387,50,33.76503519319165
50.497224503005874,50,13.99663308795337
69.26978471279135,50,24.843009909593206
56.38915532571076,50,3.337650408511955
57.34100770771156,50,12.89950265551405
64.97639886583268,50,19.777615196665614
55.2120501211132,50,13.972675808303691
65.6025464066007,50,3.6518351343590663
55.79963009836653,50,40.10327318001706
53.39084645481173,50,31.62468072846691
64.35942344571768,50,7.311181003908729
59.591924707716416,50,13.568952652841848
60.332702225481846,50,33.12407149662466
68.53809484389328,50,49.89932132042505
66.82876332329268,50,45.41902692674588
62.147963981428376,50,23.7530366276056
53.09553146121684,50,43.59005268894536
52.0034896647511,50,11.035515470614316
53.989638874216894,50,19.245264847324716
64.15675545480663,50,27.333727600860776
51.196074006004416,50,2.3182670806582095
63.23930926115254,50,42.30207740201195
67.2603072132772,50,10.509964508816456
63.23066603998069,50,24.504830687567203
67.95878184311361,50,44.44283790446737
67.73466454721166,50,37.79528208340901
50.74179931212638,50,13.698185444037868
54.47055323338211,50,14.705949181426837
66.51486922032893,50,47.29479591029915
60.53657480745751,50,15.770835920797133
56.300297595756305,50,14.376397680068042
56.950328595794076,50,32.878138809355065
52.541211332381664,50,6.405422405587785
62.58336327676825,50,45.8039408463381
58.968973864526795,50,1.5299616645577607
55.264424031247216,50,14.059531067690651
52.449428399858725,50,25.30183536871689
62.65434413609731,50,16.973919610709743
64.19837929988873,50,32.566527357234555
64.05660409864538,50,17.223527349519298
54.965902435200874,50,43.3664529377131
59.55133110038577,50,33.66563203256299
59.36203137536634,50,40.96703810598461
52.4095271433241,50,33.16623462895183
56.13315602418973,50,20.494830628356308
68.38152466663423,50,42.79755325302624
63.86560426427354,50,20.90117483799539
53.05441089063279,50,40.030220453519824
53.25990100591427,50,3.6418852422654133
57.977640794612654,50,31.84556830558457
66.66740352309937,50,8.44902741843367
60.034831361661674,50,45.209473249146434
62.259313264270325,50,9.855537599886944
50.84073927605219,50,2.498500976759205
56.54562360462406,50,32.43214305170034
69.36119960958902,50,12.754411328686727
59.79141787977099,50,11.89156427912193
62.63790931912587,50,12.761397816241542
68.6362587997688,50,10.548971175158673
68.49147240139864,50,42.726234472964165
62.11904090097097,50,30.808242012665666
51.814877950186826,50,13.220644172467571
53.780703922733345,50,35.48442792866733
58.578768517933895,50,16.516568912443557
60.1705738239249,50,17.954507543581872
55.272349600608514,50,20.35126059887043
63.78019459443568,50,33.509608710094625
60.07922203161124,50,35.718223879998874
68.80991519365747,50,4.535707258268262
63.10887387449774,50,16.03655287901252
66.07183545405664,50,47.01691121290025
56.24306152012518,50,28.242134640798977
57.67117689954837,50,30.344538826358182
67.53398427191497,50,12.62779416636996
59.02385332990782,50,11.16861669390999
59.687210746658906,50,40.50590532888567
67.80047846047616,50,32.44023692064965
60.40412179470354,50,0.13279657992311122
64.35526714443623,50,27.318178020837525
65.4556416679464,50,25.379179953864966
66.07091686423404,50,46.696595588742554
64.69188810720195,50,10.425114731795853
56.915526689019785,50,22.118146294086614
60.545521039955545,50,38.07697587300156
67.41101029728348,50,48.26025124267168
69.8601441414065,50,38.78561179627079
67.4038923145875,50,41.54590169015088
62.17833486152048,50,27.216226446780617
69.09303452925352,50,7.766928327652067
67.07252873817345,50,17.506507148540905
53.47646365749822,50,33.57188689387704
54.54998251337397,50,24.835328433325678
56.147549799616876,50,48.012489367418475
60.520383807918314,50,49.60182451805627
57.73032382459139,50,16.753824296744884
63.99228655570919,50,16.608535905807788
52.17268651661421,50,35.17917272801612
67.82240778424836,50,4.497191612742451
56.04800020726993,50,4.72626156312983
64.12513380417862,50,27.821424487832786
52.365984465306575,50,40.62731399337424
66.46613248657195,50,3.962914238794818
63.92533087988616,50,43.372329573754044
66.0039469228486,50,1.1220160405658708
69.05264812111426,50,47.32616008179208
67.44282749647539,50,37.083896208159274
63.70431299802115,50,5.830649830681795
66.11534582774655,50,26.431117008422078
61.45781854233508,50,19.008206909328084
58.02539811577016,50,32.26582329225885
67.0265785538337,50,27.078579634711513
50.740740582457235,50,47.11438021629436
51.813943315471164,50,10.143358407493109
67.68734152567345,50,2.606415124753847
57.54476956555772,50,10.416503290332619
58.19870449109747,50,25.808694439284118
50.750698491091924,50,21.927385953559714
68.72253713530283,50,35.52868065855739
69.78641776273174,50,16.88047928335223
58.71385637081115,50,39.46548578576795
54.159341820214195,50,16.972690016284353
69.18184650914989,50,45.52580415372811
59.04764528552752,50,40.73997572004042
59.56152700252683,50,2.2287861830580513
52.405488849073684,50,27.318698225182718
67.69662074824751,50,31.42567997428931
51.18799141674855,50,1.0762813072472177
66.81985343539367,50,17.067045309425406
56.90586667404532,50,37.20798434108884
64.63336959492919,50,33.21909631843893
67.81359347268142,50,9.742848982143675
62.64264783614529,50,1.2388883481437296
69.121374058212,50,21.52164444013594
50.34974872965018,50,44.014918423528
54.21271142705682,50,18.283092771696435
54.55686402007075,50,45.543204328801785
64.04787326515456,50,42.18164860553901
66.14929148323131,50,0.5925402330537788
52.74516350115224,50,21.797971229569015
66.25392428207738,50,49.52906094266708
52.83045197147044,50,12.245089916796491
65.6210996296432,50,28.189962307869727
58.913856005782314,50,0.21869082805532347
66.03240363315045,50,20.562294578038376
60.31428605809647,50,17.053004591956768
53.37260038914247,50,33.09434693858766
58.91496844512499,50,40.023957348884295
66.43943242288245,50,8.063801235038332
54.990736160171785,50,8.797754024187988
64.780247436007,50,5.5828013296434165
63.01193233829046,50,30.078706330264954
52.951408554408616,50,4.50422339263924
55.63753433564142,50,42.079443365321225
54.63081186138665,50,25.06069341324459
65.41086952372461,50,7.335915377480062
69.89567930269308,50,46.68223237931353
57.85979075750844,50,21.785058608385132
65.47472385100407,50,8.818315431492191
56.37626048154244,50,47.746046871607106
66.52546303158965,50,30.993021999267995
51.70557768582874,50,35.34622990504673
50.31571951913453,50,3.7656618580457657
50.215068715422,50,42.16309153995195
61.343401681770516,50,7.728909059211409
54.10657492879454,50,29.46809866109752
61.34625775700382,50,25.19688897707037
62.92772349183858,50,16.53643456102431
68.89498579430776,50,9.870128205364376
68.0634934458003,50,30.125693888470213
69.37572668004339,50,0.17194112629220215
62.515298935920164,50,5.301740361947072
61.52929080172923,50,26.406440000425896
61.665841697823595,50,13.314068713874939
50.29641372788835,50,12.182432574468717
58.44098158783764,50,2.645577418148476
68.90537770147903,50,48.395531763519806
58.2636141503275,50,25.309485951250554
65.57308405628162,50,24.898282893716917
67.76629393246387,50,12.10617735992437
61.463113629507966,50,49.71667273365939
67.33169780440912,50,44.71178855183724
63.519733001754176,50,38.97066647345916
59.62446002658014,50,38.05535597643879
56.15116991506132,50,40.64948360196858
57.3046854841621,50,7.219829861832089
54.15735260893278,50,0.6276974778631039
57.8153465990834,50,36.65115452728214
50.042186354239256,50,23.080887881553142
69.5263650168371,50,33.32969980699762
51.34922314959339,50,46.6537710878179
57.20143439475496,50,37.388128378870036
52.20990096374405,50,15.296410067544592
54.240019873175655,50,3.779874181153903
57.306615312632275,50,3.448753986666903
51.59511342898301,50,1.3330772708674055
64.71691137933787,50,18.72436032467915
62.90548366976881,50,48.82022959078755
61.508636278708316,50,23.11040748370476
68.39495362879717,50,2.5000831495843476
63.62458560962713,50,45.749211837511325
56.64359470108189,50,32.509934058041125
55.48083036087706,50,37.215670406831116
66.92913890417613,50,37.59673092482153
58.78531935553198,50,47.24097779468271
57.16878791474458,50,47.22927732448957
55.60005432076547,50,45.451970767531826
63.36814899540463,50,4.596175118429763
65.12317328408861,50,31.80624420708425
68.17441222641382,50,15.146194697223098
66.55830003894862,50,9.039784857232085
51.06816587878492,50,40.06520709514795
51.315869248448514,50,2.610535110243073
66.068547048472,50,4.505323215040296
54.23622663914225,50,14.179736178298551
68.6573438910433,50,29.260883586852867
52.806584542500005,50,3.2960156147471995
51.30090333811673,50,41.23323838346908
61.22896979963723,50,4.497259569746149
59.48772551728275,50,35.17590100620204
51.44885901826931,50,3.798610014643061
52.82809258237486,50,14.202095780432161
56.55865025263961,50,23.625664717420854
52.27077298854271,50,28.363917237593128
61.131371334542536,50,11.38370245427724
65.091032739324,50,31.133131709308703
54.63402673359682,50,24.374631095219158
68.75459458927054,50,22.193701671168046
53.30358447137632,50,4.191939570519054
62.92915019471519,50,22.94349452804511
65.1551086745007,50,30.220359317650058
55.45441351356907,50,14.698695649040772
58.21414759074069,50,18.635068256328168
57.16564081607184,50,27.57692979740181
60.81934546911501,50,25.04274543062026
54.72775035446599,50,9.304487503594904
52.46964618815805,50,3.8408896517997784
68.29600298409726,50,44.28027144655042
61.18955022006549,50,7.119705024387129
52.07055044136755,50,49.47168032717327
51.906551069507664,50,38.18734318773674
51.36223566523132,50,46.34245071780892
67.71296226227054,50,14.220077104103673
65.99659911295707,50,10.722282725066357
54.91977753660001,50,49.8250300023679
66.1026140250444,50,41.93593887703146
53.73760623710564,50,15.589902227317015
58.10844824748932,50,14.280198061503018
68.67432230957378,50,19.503616897588515
64.16503486752954,50,31.069345749466653
64.02284954934936,50,33.83948194939805
68.19812645545414,50,2.5628736527438187
60.29598758320429,50,9.270513118147184
68.4751439626813,50,8.535461108665816
58.59699855319554,50,36.41834798569242
60.0676501052774,50,2.4723149363625465
55.811467806336864,50,10.276475587652017
59.131050293444886,50,19.187436115352273
69.96455965351188,50,15.078419444223629
55.70073517599753,50,23.337293230527333
64.97784925538147,50,15.907046866720764
62.84391482772668,50,3.336518867476185
55.50606247732389,50,38.75011122157051
60.20870538327057,50,7.666759863238893
53.46175469178272,50,8.095889379807597
57.49716115598551,50,39.81885273690185
66.91497876262507,50,20.808936544869873
58.55844756361181,50,16.779389975087483
51.97257198887065,50,13.415160303963031
52.22107662694897,50,11.505035859994518
63.62767040503054,50,36.25482203972686
59.744234155521916,50,4.170866605136664
51.84772651179235,50,41.86204243050521
69.29394907745949,50,42.13536945793124
66.4184634493739,50,24.421604740719978
52.37912599187678,50,32.769163923950835
69.83100638426401,50,49.05512571635486
68.66095416772437,50,18.686918225536502
68.1254710800612,50,4.597939394102574
50.629096325202624,50,18.729140205701324
54.379360061899035,50,22.836160751336763
64.47288504816544,50,2.2844774355404276
50.63468765963057,50,16.690073903769974
62.676709908949526,50,18.412597247439017
67.1182752455869,50,1.3966910534479293
60.56226267999629,50,32.2440425990438
67.28462391019865,50,46.08603574164704
52.301531827934326,50,46.932186628127894
64.71331115841664,50,14.795121396903326
55.80756262093666,50,20.786243349413642
54.12371592548062,50,27.51451476914125
69.73815891519314,50,27.22179141898668
50.03888801442644,50,42.26625115162801
64.496818050591,50,35.59398311266725
56.699765771687,50,6.597272096903584
66.83688547831309,50,7.551589954562249
51.51062145286724,50,40.07098270717429
52.58203692739813,50,47.577061655050535
55.086212681124,50,34.62405600101117
64.41207639431735,50,19.142000022978934
67.41536656482376,50,5.53651469108043
56.81626455264186,50,16.20081527422954
53.75224250415176,50,27.787499245310197
60.08704489787273,50,18.165683801190564
64.9504179209452,50,27.523402892431243
62.04884708499778,50,29.342744932634897
62.811452482466024,50,5.740350947812434
64.17535762452832,50,46.489837893734936
52.72621683990865,50,45.45820785205927
67.16521930703419,50,4.98006673991847
65.41063545721465,50,21.188062107011547
62.06079699220841,50,36.210384741437785
57.74389995432816,50,17.360754941590617
50.294141932025084,50,11.79675625744238
56.289518069703924,50,33.55318113511969
51.400531066778626,50,44.34587102729294
51.23157318279165,50,32.74415035771388
52.83051105078949,50,7.66648376774789
52.6189839356589,50,46.387792432477454
51.057494847946735,50,3.9082296817052664
63.79224656328435,50,14.101780527893204
69.45090852166746,50,27.041457001245046
68.74627311829144,50,18.552008154970025
57.76812385422682,50,34.74967056973253
50.77406300754789,50,24.567367288779145
60.89410136416285,50,35.69966553515384
57.33594472993846,50,40.23758547046101
52.93071336483641,50,1.0170306745718172
50.553150079717426,50,9.634244798803826
60.68657385712728,50,39.04930116995843
57.33425863176746,50,3.195422029341838
52.77414435475169,50,46.588322075016784
52.02791703517136,50,34.93945667481499
59.853698015216544,50,7.223058109031344
68.67379451781997,50,12.54799278774269
61.098244821398,50,49.50275667909782
62.85756752780378,50,10.197912580734808
68.93978310534295,50,20.111702636220258
62.062806214447654,50,17.2062643923084
63.144629555101474,50,3.220198420150322
68.91546043558137,50,9.030994734481457
52.451464505380855,50,8.253975251163059
63.922675620041545,50,17.38582649466468
52.226601626840875,50,14.037917514186155
68.57458958382536,50,16.749766949234825
62.82550518290496,50,19.29101650119715
60.257871976068095,50,9.420748579097676
51.09222689893632,50,16.948233841751026
55.87095073213212,50,36.20800766816477
54.89513827632746,50,35.6594769426925
52.28447859790271,50,1.1895408800222107
59.56919424102615,50,48.76469249229776
52.042595646516354,50,20.49867925777636
62.86850325843245,50,11.912189131543311
53.6766304783676,50,3.9477976024755055
68.44844989955683,50,40.985841731692894
58.582972314134295,50,14.413472932367888
55.08760255566911,50,28.466331509153964
66.26458160371942,50,5.992180730814894
51.641721474399404,50,2.909116857802563
57.70550128256798,50,47.23335177184069
50.777541475932196,50,45.33618341201947
58.720686200964195,50,43.47294809299972
65.02873659615558,50,34.56349821136494
55.90488115508756,50,10.837524208785275
61.24480448129629,50,21.819998940247352
53.21288364652099,50,20.403158357321843
56.215463006007944,50,9.721248296656587
58.028772315844364,50,1.1721759071114113
63.55128923993408,50,38.21208027905653
51.83559977723071,50,39.72228275462797
54.05750735329908,50,7.42838608549386
62.13569314883067,50,40.968074534385515
63.85708004890131,50,10.065821464559566
63.431139342076634,50,40.2917967096871
52.33161830286977,50,20.45781530885812
54.250262500222114,50,7.503800848096271
55.80710956545066,50,4.261316325998843
65.20093181739597,50,13.327448599546294
69.45339441933893,50,41.86678406978898
62.321231824554474,50,36.56742814394397
65.20605537156976,50,33.256723580849005
67.60037097393874,50,19.815518308506718
66.86897644809027,50,49.151383047122586
69.73613450514875,50,30.47273214140948
59.05025303517466,50,42.9751329176501
53.59640189254382,50,49.975303164958774
56.24762623339199,50,41.76909371428598
56.59119682881592,50,0.7319043005145909
67.84062871265475,50,22.78461559142811
52.385531171774474,50,26.065596651659778
62.14026228717809,50,34.10648961014539
60.04365494008802,50,26.380363353825683
65.857019858023,50,34.81958619230566
52.51725021273293,50,28.077400233619066
62.4252479478907,50,42.895507366286026
57.462117601795086,50,47.32592252699416
52.71872379551573,50,10.545730521512947
67.43721297071717,50,13.468807509776765
61.9771572800322,50,17.552758566619687
65.44342431746274,50,42.55642852851026
58.76880309177021,50,48.503170101240606
68.00694799806715,50,25.7943543237566
64.28155636584962,50,3.652791002125105
59.574775917631655,50,9.787242468759416
68.51128752897633,50,47.74939910394364
51.553142492235594,50,1.1084783528707398
55.70463732945571,50,14.480397130424144
65.18015485599366,50,6.791651339671145
50.11375962838966,50,20.848715386331158
51.26709260298585,50,3.1799827120612303
67.19073577756261,50,28.150683222038868
58.48505168230739,50,11.053577833839507
68.94584494026508,50,22.971949939253356
53.316040246681,50,25.30198086874081
66.95365704714524,50,13.507460786833775
64.79617745802794,50,38.23781376346748
60.38140926389705,50,14.32974054153065
51.359847215384484,50,16.202772761580388
66.71709608817217,50,1.6845904144526913
65.81090177203579,50,15.585573266963582
57.8953718037767,50,6.7046470961982685
68.8648685516856,50,14.18225528556461
55.461322198657214,50,4.444109485693054
55.93115021507557,50,42.039073014386574
67.40928548381085,50,1.0016122587999499
65.16378366183754,50,23.1892586349072
60.244471583171304,50,17.291461543850605
54.39760758320816,50,39.10071379635272
60.10390914607894,50,42.28018580746131
64.11114005780254,50,31.993208516206423
60.39329843008376,50,41.46914746711974
56.76659615929633,50,38.33199647131553
67.29321953697976,50,30.495991309636487
66.53823795539725,50,37.96132816727788
50.97374802390857,50,15.48023163538974
61.170369230137446,50,25.367732197292426
54.88254686528953,50,30.830438750097134
63.95890953683811,50,41.29346819549905
54.83218212252031,50,18.845859956986878
56.31519284449526,50,7.980432945857285
60.12142235383942,50,39.04271683476979
68.79884615644384,50,49.11737871693763
66.61962019971277,50,10.698079252076504
54.19903486122752,50,47.50905750799493
65.2282328405855,50,1.3943037894844634
63.0037030537909,50,37.25215478487926
66.72837132688262,50,0.22400863844178054
57.02979233142648,50,10.531502815874427
54.76150103837465,50,21.917488266330672
63.634873081019535,50,45.54309029525809
69.78224962116056,50,11.021213886622355
64.84483642276777,50,26.6509153323633
62.06850075022031,50,24.906357752712427
57.20406305657476,50,18.206098478047643
69.71905207676993,50,35.468066056988306
69.53987774093575,50,43.0972752901929
60.095235886243145,50,21.082880017174787
68.71305889407459,50,30.403837180060574
52.41968919484252,50,8.78324733137011
54.872645288818205,50,19.061198433973004
56.039733315232,50,19.783447521335685
56.53195118688791,50,45.10384502987976
65.24146715051012,50,40.38939288702536
50.19258111441182,50,30.945305501073285
52.9658422179248,50,30.683786769128623
67.91056337467533,50,8.701691034224119
65.49338101533338,50,41.193949056095136
51.141331340570716,50,11.926565520365639
68.83985531360707,50,38.96901560373067
60.894770265394456,50,19.75038266597453
53.59930891470178,50,11.027411190513176
50.83430684442127,50,46.00915790731473
67.43697474052516,50,8.291272501280417
60.14170852128589,50,19.12361622789373
62.48766853474848,50,42.43094790764819
50.13281285861342,50,38.77406392531731
62.15243827899718,50,32.332553501491425
54.8738025753087,50,41.921490377241234
65.59873280451784,50,17.510891196905153
51.925719472626376,50,25.352425573045384
58.2211643384691,50,24.083090713890552
64.80974644685419,50,0.021082817577727786
67.5804441048891,50,1.5950284950142668
67.28729468348709,50,29.39559870956399
62.24584298401248,50,47.416444788589274
57.29550248080215,50,20.603955091920064
55.343325321335556,50,7.881797823077935
57.41869631172765,50,7.703884028595459
68.30938134107643,50,20.29757283989266
55.911052239629555,50,6.492694480076455
56.11169606060493,50,47.11626538609228
60.95492124998922,50,28.63758153393816
67.51084010216275,50,4.691353328821258
68.4162460675876,50,7.937699037008278
56.706557006389225,50,29.52490603636279
57.92863073214123,50,46.692793547690535
69.19216425672111,50,41.175444997095155
63.09131144391669,50,7.6979461250249015
67.20428883379803,50,49.707470174084506
51.95616395599982,50,14.054199313436344
59.79286545650005,50,36.89954922147295
57.991872106787056,50,48.437724203327406
55.7946223574164,50,21.002293759810197
62.78075465911229,50,3.592093807514296
69.78975291413836,50,43.1076902910175
51.27521745626194,50,11.197349885916369
54.77304886204593,50,8.171661187733303
53.23330749515217,50,45.79077368696841
61.943672369206645,50,6.774945963705736
59.98067921785032,50,29.506432191256316
50.194408738167255,50,27.637688666755484
55.788821552431564,50,44.49979108472246
69.60013516904269,50,37.68290232428789
51.07954376669729,50,37.86479859846153
64.19171489024991,50,32.25367637337137
53.39451740430025,50,40.922335789763366
55.67971017153169,50,49.244579244515016
53.09636946324351,50,36.8504727746018
67.32470330795732,50,14.787980103459535
59.272679416202465,50,22.814564761880092
57.55682150111617,50,41.28419706758974
56.8541226295584,50,49.292674699362884
67.54155319719071,50,28.289996995484262
52.68927747556927,50,10.496434637447488
63.279159912765444,50,19.0622964477294
53.80907110487702,50,34.187887670340714
57.121122233334404,50,36.33449533604992
66.42838077319323,50,29.171200760511258
68.56392203416137,50,11.991628558375995
59.3294713642193,50,36.40883093830431
62.623377520256284,50,29.67393496255393
60.156097553186335,50,28.06569420935962
51.32404776111549,50,48.928802190172824
62.23522157568968,50,25.20454307275382
58.88386330363248,50,40.74609245465352
67.13874541358128,50,4.6235531306145825
66.48716354654614,50,7.504664367927738
65.79702077529227,50,5.50448390932462
50.912449650269984,50,21.618844444286445
68.79738619361352,50,7.342445546634602
51.62318982616305,50,49.75958256693397
64.23899598647357,50,13.793207913997607
69.75411874179706,50,9.404798110174022
66.200300258616,50,20.09842307097526
66.57045682871309,50,15.411505796477265
63.69776125693886,50,13.099423810734635
59.23322094104926,50,6.535861189594705
64.03160054878589,50,36.67080355913205
61.7111267882465,50,34.82260644251357
64.12605390367716,50,14.908090880714703
67.1192725825183,50,4.184067589442819
51.614041900144564,50,6.56847827301022
58.465759445833086,50,43.78422692760548
53.96916111183928,50,4.347520053401582
58.360548126450496,50,35.46453911900629
56.777095238480484,50,5.152207519453383
59.22956079366562,50,47.26792525397931
51.937520507627845,50,43.53422243952859
60.28602098788722,50,26.702568613771245
65.23429959794781,50,28.818806699251226
52.73586095977593,50,17.703406285520927
55.02488085678443,50,4.861095191536369
56.99621947081333,50,21.96506146206943
68.89693321947156,50,44.15811185715824
61.53792394464374,50,17.570497990890626
55.20076571456835,50,44.05035542074284
65.26184474618015,50,25.48843627100584
66.41266449636353,50,12.031472270911175
58.553428022071685,50,48.617933941128676
66.23314495004752,50,26.292850316046607
53.34042651444147,50,0.42503374974455777
62.65374491002242,50,10.101469577773441
59.2412195895551,50,30.31606167791348
53.92496493419546,50,15.18749961252187
66.62670041293865,50,19.834107826649987
64.88634359447269,50,33.23809711975109
50.94048707769475,50,26.907518692308653
50.68471729266501,50,19.61321696532749
53.562065209959215,50,49.74418285718275
64.66925395097785,50,36.89034052477078
55.64511167254871,50,9.664533776599393
55.664927531087066,50,49.489465389509476
54.579832536100554,50,12.082413678106374
56.192291845405904,50,27.617298890213686
60.85519809447344,50,32.712864130175255
62.289884495356176,50,13.2374901611171
60.87119953091882,50,35.65662312878597
51.577467508094294,50,3.3614901842744183
54.229732574849834,50,18.874793585445214
62.07741094689412,50,38.13382634333426
51.158343213705884,50,31.325597972445525
61.44345923305002,50,35.93394912638486
66.22360676102392,50,25.360852174126723
60.441938948828465,50,2.8831570740302737
68.54743288551472,50,43.85326328011543
53.846468930936666,50,1.155201850124793
66.09137402874278,50,10.00416372384984
54.25696416049992,50,13.159861703649966
62.393911408955844,50,38.64969374796408
69.75345981485259,50,18.308868360865855
57.05563888580572,50,4.3700284384264485
66.38601813562028,50,42.316270398045944
68.60194516650472,50,30.618200608391057
55.99955259546354,50,3.995967310127979
54.94833784339572,50,20.626716956065117
56.475487628829406,50,41.10037451857465
69.33928687182984,50,25.56957991095295
51.49953767744194,50,22.664973302597787
56.87746097385411,50,49.44162305628224
65.11524822668387,50,17.175896436017187
69.49021646416332,50,7.389350715200132
68.62961402945959,50,46.11224833753083
58.78509877476942,50,43.617837918680955
69.74764070253612,50,46.13472928172643
67.5470623027143,50,35.07214359461988
58.324043892049204,50,22.135693563579274
57.879538603340784,50,49.23935450016555
53.10860281829586,50,38.795640068095594
53.84397365889253,50,8.636013342019227
51.10829013753209,50,17.32245622837371
68.3565937596419,50,33.16301692610089
51.885662926032346,50,48.42851878610046
67.97983605652229,50,33.93234821793104
66.64756190224402,50,13.689774386169518
60.66196099637469,50,47.19273363695993
64.49971910481202,50,33.40141195504418
52.87851981687745,50,7.237863550610923
52.797241273299825,50,38.86162929395567
63.11436162000406,50,33.45614951810457
63.84662972705841,50,6.6986673855829455
62.97561339056918,50,3.533315710454038
64.29312047051239,50,24.73111631841715
51.12192803307365,50,13.86899456991258
65.71081667557684,50,5.950049097154358
66.6401265730396,50,31.979095851289458
61.458290140973205,50,23.75102004316063
62.13427442206729,50,44.197345264357054
64.18488990767496,50,29.39028895799906
65.11625419236798,50,42.4513755756245
55.28370121009262,50,41.84316077212739
53.82798885953972,50,23.451662953287023
52.2782548216066,50,29.217966014611346
65.59672264285142,50,45.91652655861029
58.17308000220605,50,5.483109197525926
64.07101839790158,50,48.68034697284232
58.6024745372506,50,42.18420009242257
60.63139950138232,50,4.6084286278211595
68.53918256049549,50,44.759341694752244
62.282110957764495,50,21.445732426472308
51.48745135660985,50,46.706198780789016
68.94800551301364,50,12.060594161884508
69.91024637931602,50,30.50037463475656
57.66468747333812,50,35.38036042024208
69.23353737514806,50,5.392707288230852
63.21589569514728,50,4.017827632679872
50.9123407582909,50,46.32547610892762
68.52886555987408,50,14.155757562169141
51.094692212069695,50,29.865273736635228
60.51720571565285,50,19.09792318911124
65.35232310166695,50,32.94380978385916
65.34254577043808,50,28.978189139419385
64.8344192359122,50,27.10459046503464
51.11501425576138,50,8.522006973262064
67.71399183201079,50,33.88558061042292
60.88254591646416,50,31.8499986428721
64.50890038619428,50,1.2866481090919424
55.08257154864963,50,4.963753071857973
53.3546435788661,50,19.528415167036222
64.84462419140597,50,40.43517077766271
60.87384907465778,50,20.791115159660617
56.418046706755185,50,33.41673053274704
52.46633682174731,50,37.448775351403256
50.309742045567766,50,6.358373304857679
51.41089496730999,50,48.50019470298564
66.70009133060066,50,38.133585132473215
58.7173318220165,50,47.62454195680368
67.02690713999046,50,41.36989204167043
52.108582170500895,50,30.483114435130375
65.02794735713319,50,2.8215273020226306
56.61578597693536,50,33.78766060016676
60.836400201877595,50,1.2403703119175324
64.63592006811305,50,7.684860890927298
68.68051343560995,50,25.256812817377437
58.49947964310107,50,45.33306357413627
60.27290151371917,50,17.767691281604076
50.77262266029603,50,16.000135096399156
55.82120372950063,50,44.366614969281436
50.711402743614684,50,26.52890425540417
61.60366009233516,50,8.70047193783116
57.3544630645898,50,7.549610677004126
65.52301283311652,50,3.6084235537305833
57.99510457043395,50,17.304359460544884
52.73240424986488,50,9.25044015942254
55.57013479448962,50,41.96382610683059
53.161035521188985,50,4.61814233526256
56.21502462766047,50,47.43625555159227
65.18633461573235,50,48.99380490935204
59.115240799739524,50,29.33282794095068
60.734137385229744,50,5.134013328737147
52.272309684887674,50,41.99789501179775
56.367105549296056,50,32.75479294649562
69.04151728153735,50,10.161952543773623
56.287082365730406,50,8.999936476147202
61.73515796934543,50,40.82073669439702
50.163373684881705,50,6.51903219940963
54.65998981942529,50,12.111572136315218
67.62254160916389,50,33.19438604799477
63.58327094999819,50,15.081707183528303
69.6033493257055,50,44.45525333022226
63.50584455710162,50,16.463761107174097
68.39048649556634,50,22.625534221006895
64.60471441643236,50,42.83781600627062
62.38667354582187,50,24.95119036534039
67.40141736412545,50,37.7694860421002
55.635080048708225,50,43.358482110489874
60.28551384464552,50,25.09208361035015
60.50223081481656,50,37.02125121246701
69.51571918044087,50,47.24150985259825
53.21790627133425,50,46.01596916593917
57.41677406029993,50,40.00531533057312
51.44249085028251,50,40.838264343295315
54.3398905105196,50,22.750396394078866
51.6083098809614,50,19.512296906037907
62.60815676843627,50,7.078833173601068
54.94924380076362,50,7.56412820927101
63.87956692131457,50,45.459996780302575
64.52721752721013,50,7.397576582448995
50.19853814903799,50,9.781403309637533
65.09631883215894,50,5.37548130961309
51.804271506146875,50,36.898606717255696
50.5392444543962,50,21.30399180438507
57.260757990469735,50,34.62441491438322
63.91181350656349,50,22.810142568720266
60.56965350700417,50,28.835161514660108
50.076056951841096,50,34.16198532627114
69.71852400202103,50,10.555287313481987
57.28088917182465,50,19.311078715931597
59.96666349009441,50,42.52569115779441
51.595858166119854,50,2.343992370258008
67.63616707650016,50,42.60519894283397
66.93982034208213,50,1.7637359266481079
59.10189167954054,50,41.644718765284395
54.3604615260541,50,42.799032039899885
54.42296815773059,50,35.786223353678935
60.48461713556503,50,17.63197844647163
54.42097438013804,50,46.43120826135196
59.47756985063094,50,49.94784358654215
56.78112541705446,50,44.16681611645254
62.02307497436312,50,8.04085597217501
65.11994217634611,50,49.97716295609027
61.686374555740734,50,23.192680251493247
56.65261559799777,50,18.711025254036972
68.30622389215013,50,43.72790465267647
57.651088898725526,50,0.23637809181666913
64.31167412994827,50,47.14934160915455
64.43047190629412,50,46.54914318970641
63.327645267359486,50,40.98245743335537
61.11724230346412,50,1.4836608330488998
57.637040532314806,50,45.35362935614419
67.51350549298164,50,5.918000449594263
58.79278801909134,50,32.82780465384574
51.69754943032626,50,2.3696443565910053
53.01910077974969,50,19.73990189228982
50.279517367246314,50,41.14040855325551
55.51120604026616,50,17.740451412657283
54.150241759176176,50,13.975689314561002
54.108262617841135,50,35.71978692662834
63.77432700295593,50,20.585182323895896
64.9481071120525,50,47.07718023244099
56.568584873386015,50,5.599531349100728
52.16949309281773,50,28.571779611656844
58.74870545419569,50,12.61772818683069
50.35712639191627,50,25.547060537361745
53.30750014402638,50,21.817301747437302
51.49931523494339,50,10.075799583031685
52.40593051703866,50,23.892959814333185
58.61625892346856,50,19.05086890434704
61.057310878727954,50,19.789852424314482
51.356255860007074,50,36.68741721616165
59.06692468770888,50,25.477976777724585
59.69730249751616,50,29.799582647072626
52.0897037534103,50,1.151993933072687
55.78986328381065,50,39.606564994324515
63.253672975636626,50,9.818048683712998
69.39471409341563,50,17.39768877515202
68.11340220922668,50,40.9901627512574
63.9388041684536,50,30.023638171920698
65.29598222561476,50,45.99324232983258
58.57337749643557,50,41.28176927604093
68.47945457873223,50,44.07939548730882
69.94574988365794,50,38.45845977692367
65.80631456974925,50,31.896606763780312
56.23426323948702,50,21.89063582368464
64.89955455538446,50,45.462829176921325
52.80225884984697,50,46.23766798371817
56.123572555473714,50,39.40395110742261
68.34578038374225,50,17.55942527044198
53.073141471423114,50,34.02095378716724
61.241902329356805,50,4.096687420625717
63.203784353869125,50,4.402901637912116
63.78568680700505,50,31.717106079025243
60.395491239669774,50,35.55083232238984
55.50284809599098,50,40.311960957969994
56.2003703515334,50,36.59163776222669
60.282768748816565,50,15.324237333908702
52.06234836271103,50,5.426667227959026
58.89002481793379,50,1.597099091550186
60.82568554001554,50,23.85988813558024
69.52697561040746,50,0.011908956414724559
62.649167378761,50,14.989438548462003
63.21741957429363,50,1.9471404304301942
61.41611529388658,50,42.59057358214142
50.9638833380721,50,19.061893013708087
69.40847338925795,50,38.79048137602314
62.904524191290484,50,40.99980408139273
52.75822218544835,50,10.480580246918219
53.92781553939257,50,3.2219564983379243
51.36614803743006,50,25.400265687120804
64.86477341312447,50,23.900792622300433
66.78022030756772,50,48.30782348243113
58.49889307695158,50,29.118425319176254
55.42985340476833,50,44.76988013299258
64.07033785649999,50,27.290232330290827
63.38218167065692,50,32.261921712591004
61.86271599782057,50,32.13975363400436
60.80909687992147,50,38.115096972506976
61.348680331399194,50,40.69782348087857
55.43166610129496,50,45.32423943495741
56.6395129381938,50,35.51490459528067
51.788242935063224,50,26.747335902732054
50.68373214523697,50,21.797031908980802
60.65898447889017,50,35.88257931914428
64.8412342832371,50,44.37983980272258
68.72074584147877,50,2.312928367519712
8.569694048865253,35.08369781351296,5.321711741395912
-5.500639344140039,38.16930444283384,38.589902396648576
-5.739260041571378,37.09919393149316,7.422631910842236
7.240926876002717,36.58062635805862,36.50246759526916
-0.523825593441655,20.296181239275718,32.85651321725946
1.3199772873705835,20.650241087138465,5.5746719221112295
-4.0584684483696165,21.16837367773668,36.74545445501118
-0.4190421240982237,20.377335390259084,24.970939293399624
-2.818101047452247,39.19266886096691,20.35423212632688
9.863168162983786,31.41396482298616,12.71017406863546
-4.9322314296141725,37.73359172147552,27.703722358953925
-6.884296152962172,36.67946912714173,16.044234575984884
6.737495642447742,23.753610444150635,14.383720731909905
9.305809047214323,33.13235300335467,5.483084738805156
-8.972438541186847,31.346419192112,38.18190859313154
-9.41482897324468,33.34474206803436,3.5897137162647863
-9.144721435110553,29.499685932649154,34.709387954110454
-7.09157126468745,36.85614326712488,42.50623297296705
8.65846437151372,24.997111142902742,27.206972768379504
-7.167138910256553,35.79379269250961,4.979851103535504
-3.3550703920535607,21.54638237691644,10.050165449150178
-8.919392509349862,28.47069834149627,44.93246087554063
5.538141610770273,37.283121829010824,38.88519776568242
9.39840451490957,27.65905705107173,34.29916599466425
3.4135569904664282,21.00494427478597,20.51217408137568
8.22515720567171,33.996405720715806,16.875103998039144
9.452020178409533,27.664043974929786,12.016777604258982
-9.678214382223276,27.86873524283498,25.17172893235935
5.416378566365208,37.671465181041036,7.58805031434377
1.431030493131297,39.03568178465037,43.04648073686677
9.164713583341685,32.47011078724833,22.59794746585813
-9.204334296779821,31.21158068186553,11.851091880526077
6.093609972678663,22.37851434852325,26.323708481315904
-8.472224158176239,33.28896211986475,6.856952135319716
-8.949822044882826,33.52369719464814,34.01499129359257
-9.606923353653182,27.27367661267205,14.975384759991472
-8.413015261750061,33.62227595448278,38.12277615339871
-6.6116467762173405,37.10294459448787,48.22045392863596
-8.691378894227844,27.03369958086805,39.316890342746305
6.595573672854255,23.14868982406766,3.156336431409279
9.09068669336667,30.991858954230956,8.143062244741362
-7.833019066839529,24.86665297804201,45.655189294149
-9.12543842685075,31.943532169807458,32.0283518870965
4.66186452167066,38.354671856555875,38.63983262004416
-1.974664306702128,20.211869372291392,22.43732815559089
5.179932409994083,37.884241907390944,16.47048648301136
-5.097221023763787,37.849677065867446,28.617285855879643
9.10844889251089,26.89931100594332,1.8032009465421328
9.354591232341098,33.388414836994016,3.361881820685336
-9.476288456281901,29.894248887134363,14.76648275404231
0.2582988326954557,39.11967563029753,37.54383573117545
-5.566328638370532,22.40450505652386,5.201828473941289
-9.125421407154233,28.7982781620064,32.03655320987485
-9.431619176944759,27.69901627696759,47.104791207415566
-1.7454260026740902,20.549270874631958,41.706898466625276
-6.066642428549302,22.41942350874315,5.189025743985814
-8.869005078850027,26.500935681331857,37.0580316350987
-5.7522167133372095,22.940949337893382,20.81742900276226
3.525278247917863,21.559640275086267,2.135895759918527
-4.449337032705786,38.20300523847659,39.274111063669636
6.004980288058856,37.04637237142589,36.92550641487124
-3.842826691867891,39.03311034233344,36.59035067448991
-9.617608056274417,30.665648160252683,18.37099341882082
-6.743751050838293,36.91602747237372,37.88541887922568
-4.520039548500533,38.343406415184845,15.351621851216985
-9.098316492600404,33.957035512594025,17.05067071094848
8.325187448218296,34.525402354126065,30.903786297751633
-4.979686294245145,38.37741898646362,10.005233612456427
0.9733430102767686,39.48269008456038,22.523782131926744
8.571267945689991,32.809968219181265,46.10054680905853
1.7122219054021648,20.955219017901697,1.1775891702852703
5.4603071641895315,37.381182224116785,33.00239563435803
9.153378282020444,27.81905283118381,39.725409902928746
-7.128956988770464,23.63042962024838,17.538961352011196
7.758923390065524,23.838697169250878,18.284626038051915
3.519829178860236,21.703088997109234,16.077095034626975
-3.4377726790080523,38.966535734612236,10.580255957089967
3.402300183396263,38.739357211241135,49.85215698835997
7.526177226096379,24.899994711464785,40.75967153290576
8.934130402158365,28.740826941091093,0.5783942736447556
-8.204703603976167,33.71309523878284,41.91987403724601
9.571723623509142,29.433398357323142,16.801764445649404
-2.8214724408008256,39.08144222649748,21.674016904865702
3.390797667285912,21.522358154935,42.884607057287546
-5.490211331725153,38.25078400882987,48.79450262358208
-1.3571028678509562,39.29273567602657,45.6401393872156
-1.9052779742841925,20.86596782876387,46.53153957753199
-4.569084492160307,21.99502035661463,42.83445709614158
3.481425940292141,38.759296763449534,2.2161139642677297
9.756961791819757,28.753651996821375,15.949435218117664
-1.3322792455322665,20.523968436319123,6.30401066804146
-9.447101657883339,31.951612009857982,3.120968682442171
-6.68414697550144,22.9667180549813,8.854278450087987
-7.866396927219228,25.407634840365578,47.37974685702024
-3.0373241908736466,38.812761060585345,22.355157588806442
-0.49967743422882666,20.56790151719574,8.026400105810216
-9.416473799976101,30.76128648483149,34.37858816301185
4.738915500359513,38.301179590405994,28.74963188525116
1.88927727577605,20.997031608023196,44.934300397334354
-9.627187748084765,29.49828088722343,49.267992641094786
0.16476233636512702,20.542386454942363,31.451645219236614
4.700686081871097,38.664376960799075,49.037346349695675
8.116992166082303,35.08825960755113,31.358502961178075
-6.178638006755249,22.501277095942317,33.06782307413693
6.410344417720429,36.89278537055072,18.002747261330036
-7.874708993096803,25.604934364367303,5.147313613412418
-2.936800312699254,38.55754738980441,12.153270869332445
-3.120620923798127,20.7033812725226,0.7178482745519299
9.805827094826952,31.428354590277557,23.074134946279568
-2.3657791583433787,21.007468583052837,44.35529517823873
-8.11683363348141,24.305007135349868,25.00092963900346
-7.894114160458155,23.996418616204995,38.489932858290594
2.3174180041164028,38.84444868176786,22.472077571638877
2.222691901386288,39.47231751500678,41.001642893027004
9.464593924701845,29.031676949552576,48.63121008717617
-8.23230049392007,34.65930511802643,34.229589381400274
-6.050239281967782,22.20979380913107,24.950596434745776
6.039917886566275,37.63386765757673,27.437598435334554
5.566677960057076,22.204369781681898,31.958729020691035
-4.322045213466341,38.78464888163691,48.95594228290887
-0.5863438943758823,20.626450424420355,39.80924152692864
6.558169359186149,37.03501473354871,41.09770884202421
-6.242966768961118,37.01167844220354,19.47852261371467
-8.385665812195155,24.564491445571775,41.93959453918172
-1.4364832122803035,20.783693863244196,13.1514956108721
5.709495359439706,22.95539233133768,47.45107479826515
-7.858667862452607,25.027102267147846,29.940533572037776
8.833335975408145,26.739119651663817,36.96809759947946
-4.251372005560503,21.252224593572052,14.230361136054492
-8.853888702010579,34.25041224836748,13.104740935143672
5.0323303626783344,21.917001055917776,11.916918601163385
-3.1449174423394126,20.918137330564704,48.67793438077888
5.02025051060619,22.163305415862,5.893413358151695
9.391947422256983,29.396170534364003,31.941407860606297
2.6423874059721206,39.48068700187453,39.396441862602614
-4.270502473386535,21.01724504681753,22.82210956499149
3.0617595115228955,38.80525512007213,32.70103126872352
-8.248841418640314,34.889372377824465,46.11095394081023
6.442977984033406,36.930660630615854,47.39588017024543
8.99359011737308,34.26803540331561,15.937109978090664
9.512482389492034,32.93539427856471,41.58934957218302
4.326948992162954,21.396277803292914,39.33344131181503
2.0147063824272364,20.75180991059215,32.145730843336715
8.889299859151226,25.732439519184314,2.301505470004106
8.932306122894053,26.804736926318657,42.163610750833065
6.542421485907364,22.516387278500996,15.813937754355056
-4.15216874501003,21.472697058632164,20.01125946634022
-9.374926387656169,26.73012273331414,15.259772036936026
-9.257137971904813,28.20313248360583,35.383844327293644
-4.230041093194659,21.691148012427696,7.9219821714190894
6.500878574362835,37.360115612482275,40.82705270125228
9.590909137134703,29.16511631937925,4.7735977342626965
-4.868365124192769,22.157991191523834,25.189631863123708
4.491160767284644,38.50157644341706,44.59642035967341
-5.573132953426968,22.01467956832602,5.585686208235496
-1.8364820941292739,39.103408441771386,24.84096100152133
0.6939252252836967,20.240969304790887,16.656186401767748
-9.187029880426158,28.047011468609565,10.569552273679438
-2.731964889949588,38.71235807354185,43.25495115500899
8.16967595665149,25.338456134200385,19.487728560751695
-4.012166730402262,38.325277031200315,6.946564962706447
-9.006533681864024,31.019502672505077,10.390875507793162
-2.4907344790673576,39.182667756014126,40.66528725131634
5.707366350049134,37.809029280600654,22.210806019646196
6.619469848450883,37.39763069874262,6.008424348297608
-7.440208018947068,35.83439395939522,13.941715612197797
8.807142163484631,33.02346610369516,44.43157674683204
-5.645712774259473,38.22850966296122,32.44159363052438
1.8865665489666135,20.639337373161936,42.944213673974296
-5.2944395691025665,38.112438913061155,34.65554461874928
-7.0227401466331125,23.472924390451524,13.24058916008467
-9.276567586221217,32.782046698915394,20.52827416932835
-2.606435169654191,39.20858771288839,23.51434661575346
4.581211197416684,38.58408276289043,33.78452579738117
9.120090201482194,32.45053167764776,22.412227140610874
-8.991133049783297,30.57317832243276,22.776227289008332
2.1339170557619926,20.434234722737,9.51415537856502
-8.690584051725624,25.447118719283086,28.096391996595692
2.2225886332090052,39.34755637204205,8.315140190291103
5.931608270127514,37.666887191319724,37.21178504085779
9.215573107884932,26.929774058817344,13.859929372225722
6.633144318231404,23.908665407704753,9.190402902150751
-4.30655354755766,38.198460694324666,1.7773031594133903
5.82012995958216,36.95130588586309,48.02586174710311
2.060422296325892,20.863329480973988,20.10464073460926
1.6108888158757637,39.27461660137304,17.162683267059688
8.269664778541395,34.26677359575504,0.5123812167056263
-7.796577318983021,25.22732290971643,8.993858307066077
9.25541417486137,32.40226653103471,40.4747288142189
-8.879195576420111,34.13880574646477,17.29168211484449
-2.3825655299836845,39.70491251901558,12.780385086047241
5.7463235953067775,21.844963008775405,45.84938052808531
3.629428258924095,38.372640666679885,40.75580229667368
2.655162587272027,20.845278271482144,39.74554690788323
-6.729282440892403,36.14490622971743,3.428611374264201
-9.63957705389874,28.436498657294713,38.08858045463414
